128.56,150.88,200.88,166.76,150.88,248.0,150.88,209.91,200.88,150.88,192.05,300.08,300.08,300.08,278.65,289.27,19.44,99999.0,0.89,219.13,150.88,300.08,166.76,25.4,99999.0,99999.0,99999.0,99999.0,99999.0,99999.0,99999.0,99999.0,0.0,19.44,52.48,57.14,72.32,48.01,121.52,101.58,135.81,99999.0,99999.0,99999.0,300.08,238.18,99999.0,99999.0,99999.0,99999.0,99999.0,99999.0,99999.0,99999.0,209.91,150.88,143.25,174.99,174.99,219.13,183.42,99999.0,0.0,32.14,16.76,248.0,300.08,289.27,558.0,472.29,114.68,128.56,99999.0,39.68,67.06,543.22,419.12,839.63,67.06,857.98,1200.32,839.63,895.28,445.31,67.06,99999.0,99999.0,99999.0,99999.0,99999.0,99999.0,99999.0,99999.0,99999.0,99999.0,99999.0,99999.0,99999.0,99999.0,99999.0,99999.0,99999.0,99999.0,99999.0,99999.0,99999.0,99999.0,99999.0,99999.0,99999.0,99999.0,99999.0,99999.0,99999.0,99999.0,99999.0,99999.0,99999.0,99999.0,99999.0,99999.0,99999.0,99999.0,108.03,381.33,289.27,289.27,821.48,1525.3,1728.46,1834.81,1834.81,1944.32,2000.27,2085.68,2143.62,2261.86,2352.63,2414.14,2445.19,2476.43,2571.37,2603.41,2635.65,2700.73,2733.56,2766.59,2799.83,2833.26,2900.71,2934.74,2968.96,3003.39,3038.01,3038.01,3072.83,3107.84,3107.84,3143.06,3143.06,3143.06,3107.84,3072.83,3038.01,3003.39,2900.71,2833.26,2733.56,2635.65,2571.37,2445.19,2352.63,2261.86,2114.55,1861.89,1550.0,1550.0,2000.27,1916.65,1834.81,972.26,1781.24,895.28,278.65,1266.69,393.73,0.0,99999.0,699.96,52.48,99999.0,99999.0,99999.0,99999.0,99999.0,99999.0,99999.0,99999.0,99999.0,99999.0,99999.0,99999.0,99999.0,99999.0,99999.0,99999.0,99999.0,99999.0,99999.0,99999.0,99999.0,99999.0,99999.0,99999.0,99999.0,99999.0,99999.0,99999.0,99999.0,99999.0,99999.0,99999.0,99999.0,99999.0,99999.0,99999.0,99999.0,99999.0,99999.0,99999.0,99999.0,99999.0,99999.0,99999.0,99999.0,99999.0,99999.0,99999.0,99999.0,99999.0,99999.0,99999.0,99999.0,99999.0,99999.0,99999.0,99999.0,99999.0,99999.0,99999.0,99999.0,99999.0,99999.0,99999.0,99999.0,99999.0,99999.0,99999.0,99999.0,99999.0,99999.0,99999.0,99999.0,99999.0,99999.0,99999.0,99999.0,99999.0,99999.0,99999.0,99999.0,99999.0,99999.0,99999.0,99999.0,99999.0,99999.0,99999.0,99999.0,99999.0,99999.0,99999.0,99999.0,99999.0,99999.0,99999.0,99999.0,99999.0,99999.0,99999.0,99999.0,99999.0,99999.0,99999.0,99999.0,99999.0,99999.0,99999.0,99999.0,99999.0,99999.0,99999.0,99999.0,99999.0,99999.0,99999.0,99999.0,99999.0,99999.0,99999.0,99999.0,99999.0,99999.0,99999.0,99999.0,99999.0,99999.0,99999.0,99999.0,99999.0,99999.0,99999.0,99999.0,99999.0,99999.0,99999.0,99999.0,99999.0,99999.0,99999.0,99999.0,99999.0,99999.0,99999.0,99999.0,99999.0,99999.0,99999.0,99999.0,128.56,333.71,419.12,472.29,322.3,174.99,99999.0,99999.0,99999.0,99999.0,99999.0,99999.0,99999.0,99999.0,99999.0,99999.0,99999.0,99999.0,99999.0,99999.0,99999.0,99999.0,99999.0,99999.0,99999.0,99999.0,99999.0,99999.0,99999.0,99999.0,99999.0,99999.0,99999.0,19.44,32.14,25.4,16.76,35.81,25.4,32.14,8.04,99999.0,99999.0,99999.0,99999.0,9.92,0.0,99999.0,99999.0
300.08,278.65,268.24,238.18,228.56,311.09,333.71,300.08,381.33,322.3,300.08,300.08,289.27,322.3,322.3,135.81,95.33,1.59,0.0,12.0,67.06,101.58,108.03,67.06,25.4,99999.0,99999.0,99999.0,99999.0,99999.0,99999.0,99999.0,99999.0,99999.0,99999.0,14.28,25.4,0.89,4.86,9.92,99999.0,99999.0,99999.0,57.14,143.25,3.57,0.89,99999.0,99999.0,99999.0,99999.0,99999.0,99999.0,99999.0,19.44,166.76,219.13,228.56,238.18,228.56,192.05,108.03,99999.0,89.28,121.52,77.77,248.0,166.76,248.0,258.02,209.91,248.0,258.02,369.12,486.08,528.64,588.16,603.53,77.77,486.08,572.98,619.11,192.05,733.68,381.33,143.25,311.09,14.28,99999.0,99999.0,99999.0,99999.0,99999.0,99999.0,99999.0,99999.0,99999.0,99999.0,99999.0,99999.0,99999.0,99999.0,99999.0,99999.0,99999.0,99999.0,99999.0,99999.0,99999.0,99999.0,99999.0,99999.0,99999.0,99999.0,99999.0,99999.0,99999.0,99999.0,99999.0,99999.0,99999.0,99999.0,128.56,268.24,683.39,322.3,219.13,57.14,558.0,1625.3,99999.0,1178.6,1452.39,1807.92,1944.32,1972.2,2057.02,2143.62,2232.0,2322.18,2414.14,2445.19,2507.88,2571.37,2603.41,2635.65,2700.73,2733.56,2766.59,2833.26,2866.89,2900.71,2934.74,2968.96,3003.39,3038.01,3038.01,3072.83,3072.83,3107.84,3107.84,3072.83,3072.83,3038.01,3003.39,2934.74,2866.89,2799.83,2700.73,2603.41,2507.88,2414.14,2232.0,1944.32,1550.0,1093.68,1222.25,1011.94,1157.07,99999.0,821.48,1861.89,1500.8,1500.8,1032.08,716.72,369.12,268.24,77.77,108.03,99999.0,99999.0,99999.0,99999.0,99999.0,99999.0,99999.0,99999.0,99999.0,99999.0,99999.0,99999.0,99999.0,99999.0,99999.0,99999.0,99999.0,99999.0,99999.0,99999.0,99999.0,99999.0,99999.0,99999.0,99999.0,99999.0,99999.0,99999.0,99999.0,99999.0,99999.0,99999.0,99999.0,99999.0,99999.0,99999.0,99999.0,99999.0,99999.0,99999.0,99999.0,99999.0,99999.0,99999.0,99999.0,99999.0,99999.0,99999.0,99999.0,99999.0,99999.0,99999.0,99999.0,99999.0,99999.0,99999.0,99999.0,99999.0,99999.0,99999.0,99999.0,99999.0,99999.0,99999.0,99999.0,99999.0,99999.0,99999.0,99999.0,99999.0,99999.0,99999.0,99999.0,99999.0,99999.0,99999.0,99999.0,99999.0,99999.0,99999.0,99999.0,99999.0,99999.0,99999.0,99999.0,99999.0,99999.0,99999.0,99999.0,99999.0,99999.0,99999.0,99999.0,99999.0,99999.0,99999.0,99999.0,99999.0,99999.0,99999.0,99999.0,99999.0,99999.0,99999.0,99999.0,99999.0,99999.0,99999.0,99999.0,99999.0,99999.0,99999.0,99999.0,99999.0,99999.0,99999.0,99999.0,99999.0,99999.0,99999.0,99999.0,99999.0,99999.0,99999.0,99999.0,99999.0,99999.0,99999.0,99999.0,99999.0,99999.0,99999.0,99999.0,99999.0,99999.0,99999.0,99999.0,99999.0,99999.0,99999.0,99999.0,99999.0,99999.0,99999.0,99999.0,99999.0,99999.0,32.14,28.67,143.25,268.24,289.27,228.56,135.81,135.81,99999.0,99999.0,99999.0,99999.0,99999.0,99999.0,99999.0,99999.0,99999.0,99999.0,99999.0,99999.0,99999.0,99999.0,99999.0,99999.0,99999.0,99999.0,99999.0,99999.0,99999.0,99999.0,99999.0,99999.0,99999.0,99999.0,12.0,28.67,43.75,32.14,19.44,4.86,3.57,4.86,99999.0,99999.0,39.68,39.68,16.76,12.0,99999.0,12.0,16.76
77.77,278.65,289.27,322.3,278.65,174.99,150.88,183.42,268.24,289.27,333.71,300.08,300.08,258.02,183.42,150.88,95.33,62.0,150.88,28.67,77.77,43.75,57.14,62.0,32.14,99999.0,99999.0,99999.0,99999.0,99999.0,99999.0,99999.0,99999.0,99999.0,99999.0,99999.0,99999.0,99999.0,99999.0,99999.0,99999.0,174.99,135.81,209.91,278.65,311.09,166.76,32.14,99999.0,99999.0,99999.0,99999.0,99999.0,99999.0,99999.0,99999.0,99999.0,12.0,32.14,101.58,108.03,89.28,48.01,3.57,3.57,101.58,57.14,57.14,67.06,166.76,219.13,238.18,200.88,121.52,166.76,200.88,345.32,311.09,486.08,588.16,603.53,486.08,445.31,572.98,472.29,472.29,514.25,258.02,603.53,543.22,472.29,228.56,99999.0,99999.0,99999.0,99999.0,99999.0,99999.0,99999.0,99999.0,99999.0,99999.0,99999.0,99999.0,99999.0,99999.0,99999.0,99999.0,99999.0,99999.0,99999.0,99999.0,99999.0,99999.0,99999.0,99999.0,99999.0,99999.0,99999.0,99999.0,99999.0,99999.0,99999.0,99999.0,99999.0,99999.0,300.08,99999.0,1222.25,650.85,716.72,1114.61,1157.07,1525.3,1550.0,1600.0,1754.75,1972.2,2143.62,2232.0,2291.92,2383.28,2445.19,2507.88,2603.41,2635.65,2668.09,2733.56,2766.59,2833.26,2900.71,2900.71,2934.74,2968.96,3003.39,3038.01,3072.83,3072.83,3072.83,3072.83,3107.84,3107.84,3107.84,3072.83,3072.83,3038.01,2934.74,2900.71,2866.89,2799.83,2766.59,2603.41,2414.14,2172.88,2057.02,1428.48,1311.92,1114.61,432.12,2057.02,2143.62,1702.37,393.73,99999.0,99999.0,150.88,278.65,300.08,486.08,278.65,0.0,99999.0,99999.0,99999.0,99999.0,99999.0,99999.0,99999.0,99999.0,99999.0,99999.0,99999.0,99999.0,99999.0,99999.0,99999.0,99999.0,99999.0,99999.0,99999.0,99999.0,99999.0,99999.0,99999.0,99999.0,99999.0,99999.0,99999.0,99999.0,99999.0,99999.0,99999.0,99999.0,99999.0,99999.0,99999.0,99999.0,99999.0,99999.0,99999.0,99999.0,99999.0,99999.0,99999.0,99999.0,99999.0,99999.0,99999.0,99999.0,99999.0,99999.0,99999.0,99999.0,99999.0,99999.0,99999.0,99999.0,99999.0,99999.0,99999.0,99999.0,99999.0,99999.0,99999.0,99999.0,99999.0,99999.0,99999.0,99999.0,99999.0,99999.0,99999.0,99999.0,99999.0,99999.0,99999.0,99999.0,99999.0,99999.0,99999.0,99999.0,99999.0,99999.0,99999.0,99999.0,99999.0,99999.0,99999.0,99999.0,99999.0,99999.0,99999.0,99999.0,99999.0,99999.0,99999.0,99999.0,99999.0,99999.0,99999.0,99999.0,99999.0,99999.0,99999.0,99999.0,99999.0,99999.0,99999.0,99999.0,99999.0,99999.0,99999.0,99999.0,99999.0,99999.0,99999.0,99999.0,99999.0,99999.0,99999.0,99999.0,99999.0,99999.0,99999.0,99999.0,99999.0,99999.0,99999.0,99999.0,99999.0,99999.0,99999.0,99999.0,99999.0,99999.0,99999.0,99999.0,99999.0,99999.0,99999.0,99999.0,99999.0,99999.0,99999.0,99999.0,99999.0,99999.0,99999.0,99999.0,28.67,0.0,67.06,128.56,83.43,174.99,108.03,99999.0,99999.0,99999.0,99999.0,99999.0,99999.0,99999.0,99999.0,99999.0,99999.0,99999.0,99999.0,99999.0,99999.0,99999.0,99999.0,99999.0,99999.0,99999.0,99999.0,99999.0,99999.0,14.28,12.0,12.0,32.14,35.81,48.01,57.14,35.81,22.32,14.28,0.0,99999.0,99999.0,39.68,35.81,9.92,8.04,3.57,99999.0,99999.0
268.24,248.0,248.0,200.88,143.25,108.03,72.32,72.32,166.76,183.42,192.05,192.05,209.91,238.18,183.42,158.72,121.52,101.58,121.52,143.25,128.56,108.03,108.03,114.68,83.43,57.14,3.57,0.1,99999.0,99999.0,99999.0,99999.0,99999.0,99999.0,99999.0,99999.0,99999.0,99999.0,99999.0,99999.0,99999.0,95.33,121.52,228.56,458.7,432.12,486.08,311.09,158.72,99999.0,99999.0,99999.0,99999.0,99999.0,99999.0,99999.0,89.28,108.03,150.88,143.25,192.05,209.91,200.88,114.68,52.48,114.68,83.43,174.99,209.91,166.76,121.52,83.43,95.33,89.28,219.13,62.0,158.72,311.09,289.27,369.12,345.32,588.16,603.53,588.16,458.7,572.98,667.02,733.68,1032.08,381.33,1178.6,803.52,121.52,381.33,8.04,77.77,99999.0,99999.0,99999.0,99999.0,99999.0,99999.0,99999.0,99999.0,99999.0,99999.0,99999.0,99999.0,99999.0,99999.0,99999.0,99999.0,99999.0,99999.0,99999.0,99999.0,99999.0,99999.0,99999.0,99999.0,99999.0,99999.0,99999.0,99999.0,99999.0,572.98,528.64,733.68,445.31,99999.0,419.12,219.13,128.56,1052.41,1200.32,1178.6,1289.21,1600.0,1944.32,2143.62,2291.92,2383.28,2445.19,2476.43,2539.53,2603.41,2635.65,2700.73,2766.59,2799.83,2866.89,2900.71,2934.74,2968.96,3003.39,3038.01,3072.83,3072.83,3072.83,3072.83,3072.83,3072.83,3072.83,3072.83,3038.01,3003.39,2934.74,2900.71,2833.26,2733.56,2603.41,2445.19,2085.68,1702.37,1428.48,1072.95,1381.26,821.48,43.75,1381.26,1781.24,1550.0,603.53,4.86,99999.0,99999.0,150.88,300.08,311.09,406.32,114.68,99999.0,99999.0,99999.0,99999.0,99999.0,99999.0,99999.0,99999.0,99999.0,99999.0,99999.0,99999.0,99999.0,99999.0,99999.0,99999.0,99999.0,99999.0,99999.0,99999.0,99999.0,99999.0,99999.0,99999.0,99999.0,99999.0,99999.0,99999.0,99999.0,99999.0,99999.0,99999.0,99999.0,99999.0,99999.0,99999.0,99999.0,99999.0,99999.0,99999.0,99999.0,99999.0,99999.0,99999.0,99999.0,99999.0,99999.0,99999.0,99999.0,99999.0,99999.0,99999.0,99999.0,99999.0,99999.0,99999.0,99999.0,99999.0,99999.0,99999.0,99999.0,99999.0,99999.0,99999.0,99999.0,99999.0,99999.0,99999.0,99999.0,99999.0,99999.0,99999.0,99999.0,99999.0,99999.0,99999.0,99999.0,99999.0,99999.0,99999.0,99999.0,99999.0,99999.0,99999.0,99999.0,99999.0,99999.0,99999.0,77.77,174.99,101.58,99999.0,258.02,258.02,99999.0,369.12,99999.0,150.88,311.09,135.81,248.0,114.68,108.03,99999.0,99999.0,99999.0,99999.0,99999.0,99999.0,99999.0,99999.0,99999.0,99999.0,99999.0,99999.0,99999.0,99999.0,99999.0,99999.0,99999.0,99999.0,99999.0,99999.0,99999.0,99999.0,99999.0,99999.0,99999.0,99999.0,99999.0,99999.0,99999.0,99999.0,99999.0,99999.0,99999.0,99999.0,99999.0,99999.0,99999.0,99999.0,99999.0,99999.0,99999.0,99999.0,99999.0,99999.0,99999.0,99999.0,99999.0,99999.0,99999.0,28.67,39.68,43.75,25.4,43.75,95.33,99999.0,99999.0,99999.0,99999.0,99999.0,99999.0,99999.0,99999.0,99999.0,99999.0,99999.0,99999.0,99999.0,99999.0,99999.0,99999.0,99999.0,99999.0,99999.0,99999.0,14.28,25.4,14.28,28.67,57.14,43.75,52.48,0.89,25.4,9.92,4.86,99999.0,99999.0,22.32,25.4,28.67,19.44,25.4,14.28
99999.0,99999.0,28.67,143.25,166.76,166.76,128.56,62.0,3.57,14.28,32.14,43.75,57.14,83.43,135.81,143.25,135.81,183.42,174.99,143.25,174.99,128.56,174.99,150.88,135.81,77.77,72.32,48.01,43.75,14.28,9.92,99999.0,0.0,99999.0,99999.0,99999.0,99999.0,99999.0,99999.0,99999.0,99999.0,83.43,166.76,200.88,278.65,311.09,268.24,333.71,268.24,57.14,150.88,99999.0,99999.0,99999.0,99999.0,99999.0,99999.0,99999.0,99999.0,99999.0,99999.0,300.08,369.12,393.73,128.56,219.13,300.08,311.09,43.75,248.0,77.77,95.33,89.28,128.56,8.04,72.32,99999.0,3.57,0.0,300.08,322.3,289.27,345.32,289.27,369.12,972.26,1011.94,667.02,528.64,381.33,238.18,121.52,1114.61,1266.69,952.72,99999.0,0.89,48.01,8.04,99999.0,99999.0,99999.0,99999.0,99999.0,99999.0,99999.0,99999.0,99999.0,99999.0,99999.0,99999.0,99999.0,99999.0,99999.0,99999.0,99999.0,99999.0,99999.0,99999.0,99999.0,99999.0,99999.0,99999.0,99999.0,121.52,1114.61,500.07,99999.0,99999.0,458.7,1157.07,750.85,619.11,603.53,857.98,1011.94,1135.74,1452.39,1702.37,1944.32,2143.62,2202.34,2291.92,2383.28,2445.19,2507.88,2571.37,2603.41,2668.09,2733.56,2766.59,2833.26,2866.89,2900.71,2968.96,3003.39,3038.01,3072.83,3072.83,3072.83,3072.83,3072.83,3072.83,3038.01,3038.01,3003.39,2934.74,2900.71,2866.89,2799.83,2603.41,2291.92,1834.81,1428.48,785.76,821.48,406.32,1072.95,1600.0,99999.0,248.0,43.75,1289.21,300.08,634.88,25.4,99999.0,99999.0,99999.0,99999.0,99999.0,99999.0,99999.0,99999.0,99999.0,99999.0,99999.0,99999.0,99999.0,99999.0,99999.0,99999.0,99999.0,99999.0,99999.0,99999.0,99999.0,99999.0,99999.0,99999.0,99999.0,99999.0,99999.0,99999.0,99999.0,99999.0,99999.0,99999.0,99999.0,99999.0,99999.0,99999.0,99999.0,99999.0,99999.0,99999.0,99999.0,99999.0,99999.0,99999.0,99999.0,99999.0,99999.0,99999.0,99999.0,99999.0,99999.0,99999.0,99999.0,99999.0,99999.0,99999.0,99999.0,99999.0,99999.0,99999.0,99999.0,99999.0,99999.0,99999.0,99999.0,99999.0,99999.0,99999.0,99999.0,99999.0,99999.0,99999.0,99999.0,99999.0,99999.0,99999.0,99999.0,99999.0,99999.0,99999.0,99999.0,99999.0,99999.0,99999.0,99999.0,99999.0,32.14,39.68,183.42,114.68,83.43,62.0,268.24,128.56,39.68,432.12,311.09,345.32,4.86,558.0,268.24,311.09,300.08,209.91,143.25,248.0,200.88,445.31,174.99,99999.0,99999.0,99999.0,99999.0,99999.0,99999.0,99999.0,99999.0,99999.0,99999.0,99999.0,99999.0,99999.0,99999.0,99999.0,99999.0,99999.0,99999.0,99999.0,99999.0,99999.0,99999.0,99999.0,99999.0,99999.0,99999.0,99999.0,99999.0,99999.0,99999.0,99999.0,99999.0,99999.0,99999.0,99999.0,99999.0,99999.0,99999.0,99999.0,99999.0,99999.0,99999.0,99999.0,99999.0,99999.0,99999.0,99999.0,99999.0,99999.0,99999.0,99999.0,99999.0,99999.0,99999.0,99999.0,99999.0,9.92,101.58,99999.0,99999.0,99999.0,99999.0,99999.0,99999.0,99999.0,99999.0,99999.0,99999.0,99999.0,99999.0,99999.0,99999.0,99999.0,16.76,0.89,25.4,16.76,25.4,28.67,35.81,32.14,28.67,12.0,2.48,99999.0,99999.0,99999.0,25.4,43.75,43.75,28.67,28.67,28.67
101.58,158.72,209.91,258.02,300.08,345.32,300.08,333.71,228.56,278.65,219.13,183.42,128.56,143.25,114.68,67.06,62.0,72.32,72.32,52.48,83.43,101.58,135.81,108.03,77.77,62.0,43.75,9.92,19.44,99999.0,99999.0,16.76,99999.0,99999.0,99999.0,99999.0,99999.0,4.86,48.01,0.0,99999.0,99999.0,99999.0,48.01,95.33,89.28,43.75,72.32,67.06,99999.0,99999.0,0.0,99999.0,99999.0,99999.0,99999.0,99999.0,99999.0,99999.0,99999.0,99999.0,99999.0,99999.0,89.28,192.05,174.99,57.14,19.44,28.67,99999.0,99999.0,99999.0,9.92,25.4,0.4,99999.0,99999.0,0.0,99999.0,99999.0,158.72,219.13,158.72,192.05,345.32,311.09,445.31,650.85,750.85,839.63,486.08,486.08,445.31,952.72,683.39,768.21,514.25,300.08,14.28,99999.0,99999.0,99999.0,99999.0,99999.0,99999.0,99999.0,99999.0,99999.0,99999.0,99999.0,99999.0,99999.0,99999.0,99999.0,99999.0,99999.0,99999.0,99999.0,99999.0,99999.0,99999.0,99999.0,99999.0,99999.0,311.09,619.11,857.98,699.96,1157.07,514.25,99999.0,166.76,83.43,238.18,803.52,1011.94,1381.26,1728.46,1807.92,1889.17,2028.54,2261.86,2352.63,2383.28,2414.14,2476.43,2539.53,2571.37,2635.65,2700.73,2733.56,2766.59,2833.26,2900.71,2934.74,3003.39,3038.01,3072.83,3072.83,3072.83,3072.83,3072.83,3072.83,3038.01,2968.96,2934.74,2866.89,2799.83,2766.59,2700.73,2603.41,2603.41,2603.41,2539.53,2414.14,2322.18,2383.28,1861.89,1834.81,1550.0,1452.39,1476.5,1334.84,1428.48,1289.21,821.48,500.07,121.52,99999.0,99999.0,99999.0,99999.0,99999.0,99999.0,99999.0,99999.0,99999.0,99999.0,99999.0,99999.0,99999.0,99999.0,99999.0,99999.0,99999.0,99999.0,99999.0,99999.0,99999.0,99999.0,99999.0,99999.0,99999.0,99999.0,99999.0,99999.0,99999.0,99999.0,99999.0,99999.0,99999.0,99999.0,99999.0,99999.0,99999.0,99999.0,99999.0,99999.0,99999.0,99999.0,99999.0,99999.0,99999.0,99999.0,99999.0,99999.0,99999.0,99999.0,99999.0,99999.0,99999.0,99999.0,99999.0,99999.0,99999.0,99999.0,99999.0,99999.0,99999.0,99999.0,99999.0,99999.0,99999.0,99999.0,99999.0,99999.0,99999.0,99999.0,99999.0,99999.0,99999.0,99999.0,99999.0,99999.0,99999.0,99999.0,99999.0,99999.0,99999.0,99999.0,89.28,192.05,209.91,99999.0,572.98,419.12,166.76,543.22,445.31,588.16,369.12,419.12,406.32,486.08,278.65,345.32,300.08,300.08,322.3,345.32,238.18,192.05,108.03,95.33,95.33,166.76,77.77,83.43,135.81,101.58,99999.0,99999.0,99999.0,99999.0,99999.0,99999.0,99999.0,99999.0,99999.0,99999.0,99999.0,99999.0,99999.0,99999.0,99999.0,99999.0,99999.0,99999.0,99999.0,99999.0,99999.0,99999.0,99999.0,99999.0,99999.0,99999.0,99999.0,99999.0,99999.0,99999.0,99999.0,99999.0,99999.0,99999.0,99999.0,99999.0,99999.0,99999.0,99999.0,99999.0,99999.0,99999.0,99999.0,99999.0,99999.0,99999.0,99999.0,99999.0,99999.0,99999.0,99999.0,99999.0,99999.0,9.92,14.28,9.92,101.58,35.81,9.92,3.57,99999.0,99999.0,99999.0,99999.0,99999.0,99999.0,99999.0,99999.0,35.81,43.75,48.01,19.44,32.14,39.68,25.4,35.81,22.32,22.32,6.35,99999.0,99999.0,28.67,57.14,62.0,28.67,39.68,48.01,32.14
99999.0,99999.0,99999.0,99999.0,99999.0,99999.0,8.04,67.06,114.68,128.56,143.25,114.68,114.68,158.72,121.52,150.88,166.76,135.81,114.68,62.0,99999.0,28.67,39.68,72.32,22.32,52.48,57.14,19.44,35.81,14.28,99999.0,99999.0,99999.0,99999.0,99999.0,99999.0,99999.0,22.32,48.01,72.32,67.06,32.14,99999.0,99999.0,99999.0,3.57,0.0,12.0,89.28,95.33,135.81,200.88,8.04,2.48,99999.0,35.81,99999.0,99999.0,99999.0,99999.0,99999.0,99999.0,99999.0,166.76,248.0,248.0,268.24,228.56,77.77,8.04,32.14,99999.0,99999.0,99999.0,99999.0,99999.0,0.0,0.0,99999.0,0.4,99999.0,99999.0,99999.0,150.88,67.06,128.56,345.32,369.12,369.12,406.32,458.7,345.32,588.16,572.98,406.32,393.73,528.64,381.33,209.91,77.77,72.32,99999.0,99999.0,99999.0,99999.0,99999.0,99999.0,99999.0,99999.0,99999.0,99999.0,99999.0,99999.0,99999.0,99999.0,99999.0,99999.0,99999.0,99999.0,99999.0,99999.0,99999.0,99999.0,99999.0,99999.0,99999.0,99999.0,99999.0,99999.0,99999.0,99999.0,99999.0,192.05,192.05,588.16,785.76,1052.41,1357.95,1550.0,1728.46,1944.32,2114.55,2232.0,2291.92,2383.28,2445.19,2539.53,2603.41,2635.65,2700.73,2766.59,2799.83,2866.89,2900.71,2934.74,3003.39,3038.01,3072.83,3072.83,3072.83,3072.83,3038.01,2934.74,2766.59,2603.41,2476.43,2414.14,2507.88,2603.41,2507.88,2539.53,2232.0,2232.0,2114.55,2143.62,2143.62,2202.34,2172.88,2445.19,2476.43,1781.24,1500.8,857.98,143.25,62.0,99999.0,99999.0,99999.0,99999.0,99999.0,99999.0,99999.0,99999.0,99999.0,99999.0,99999.0,99999.0,99999.0,99999.0,99999.0,99999.0,99999.0,99999.0,99999.0,99999.0,99999.0,99999.0,99999.0,99999.0,99999.0,99999.0,99999.0,99999.0,99999.0,99999.0,99999.0,99999.0,99999.0,99999.0,99999.0,99999.0,99999.0,99999.0,99999.0,99999.0,99999.0,99999.0,99999.0,99999.0,99999.0,99999.0,99999.0,99999.0,99999.0,99999.0,99999.0,99999.0,99999.0,99999.0,99999.0,99999.0,99999.0,99999.0,99999.0,99999.0,99999.0,99999.0,99999.0,99999.0,99999.0,99999.0,99999.0,99999.0,99999.0,99999.0,99999.0,99999.0,99999.0,99999.0,99999.0,99999.0,99999.0,99999.0,99999.0,99999.0,99999.0,99999.0,99999.0,406.32,128.56,219.13,419.12,43.75,588.16,839.63,821.48,857.98,750.85,543.22,406.32,472.29,357.12,419.12,300.08,345.32,238.18,357.12,278.65,183.42,158.72,121.52,174.99,62.0,238.18,228.56,166.76,183.42,209.91,174.99,43.75,35.81,72.32,166.76,48.01,39.68,99999.0,99999.0,99999.0,99999.0,99999.0,99999.0,99999.0,99999.0,99999.0,99999.0,99999.0,99999.0,99999.0,99999.0,99999.0,99999.0,99999.0,99999.0,99999.0,99999.0,99999.0,99999.0,99999.0,99999.0,99999.0,99999.0,77.77,67.06,52.48,0.0,99999.0,99999.0,99999.0,99999.0,99999.0,99999.0,99999.0,99999.0,99999.0,99999.0,99999.0,99999.0,99999.0,99999.0,99999.0,99999.0,99999.0,4.86,99999.0,99999.0,25.4,150.88,143.25,258.02,258.02,183.42,114.68,25.4,6.35,99999.0,99999.0,99999.0,99999.0,99999.0,99999.0,2.48,35.81,39.68,4.86,22.32,12.0,8.04,2.48,0.89,99999.0,99999.0,99999.0,35.81,14.28,28.67,0.89,16.76,16.76
77.77,67.06,39.68,83.43,22.32,99999.0,99999.0,62.0,114.68,135.81,128.56,143.25,128.56,95.33,83.43,62.0,99999.0,99999.0,99999.0,4.86,108.03,150.88,108.03,99999.0,99999.0,99999.0,99999.0,99999.0,99999.0,4.86,14.28,99999.0,99999.0,0.89,99999.0,99999.0,99999.0,99999.0,35.81,48.01,52.48,52.48,8.04,99999.0,99999.0,99999.0,99999.0,16.76,32.14,174.99,219.13,183.42,89.28,99999.0,6.35,89.28,135.81,89.28,99999.0,99999.0,99999.0,99999.0,99999.0,108.03,95.33,258.02,289.27,219.13,77.77,9.92,39.68,3.57,99999.0,99999.0,99999.0,99999.0,99999.0,99999.0,99999.0,99999.0,99999.0,2.48,99999.0,0.0,99999.0,0.89,16.76,95.33,192.05,289.27,289.27,268.24,381.33,458.7,500.07,369.12,209.91,158.72,0.89,99999.0,99999.0,99999.0,99999.0,99999.0,99999.0,99999.0,99999.0,99999.0,99999.0,99999.0,99999.0,99999.0,99999.0,99999.0,99999.0,99999.0,99999.0,99999.0,99999.0,99999.0,99999.0,99999.0,99999.0,99999.0,99999.0,99999.0,99999.0,99999.0,0.0,0.0,99999.0,99999.0,278.65,357.12,619.11,785.76,1381.26,1702.37,1574.9,1625.3,1834.81,2085.68,2232.0,2322.18,2445.19,2476.43,2571.37,2603.41,2668.09,2733.56,2799.83,2866.89,2900.71,2934.74,2968.96,3003.39,3038.01,3038.01,3038.01,3038.01,3072.83,3214.09,3143.06,2668.09,2476.43,2202.34,1476.5,1052.41,1404.77,1676.48,1889.17,1916.65,1266.69,1311.92,1266.69,2571.37,1200.32,1222.25,1011.94,750.85,543.22,39.68,99999.0,99999.0,99999.0,99999.0,99999.0,99999.0,99999.0,99999.0,99999.0,99999.0,99999.0,99999.0,99999.0,99999.0,99999.0,99999.0,99999.0,99999.0,99999.0,99999.0,99999.0,99999.0,99999.0,99999.0,99999.0,99999.0,99999.0,99999.0,99999.0,99999.0,99999.0,99999.0,99999.0,99999.0,99999.0,99999.0,99999.0,99999.0,99999.0,99999.0,99999.0,99999.0,99999.0,99999.0,99999.0,99999.0,99999.0,99999.0,99999.0,99999.0,99999.0,99999.0,99999.0,99999.0,99999.0,99999.0,99999.0,99999.0,99999.0,99999.0,99999.0,99999.0,99999.0,99999.0,99999.0,99999.0,99999.0,99999.0,99999.0,99999.0,99999.0,99999.0,99999.0,99999.0,99999.0,99999.0,99999.0,99999.0,99999.0,99999.0,99999.0,77.77,135.81,238.18,219.13,99999.0,278.65,311.09,716.72,650.85,1052.41,528.64,914.23,716.72,588.16,650.85,432.12,486.08,393.73,445.31,486.08,419.12,333.71,406.32,228.56,300.08,219.13,158.72,219.13,238.18,174.99,174.99,143.25,101.58,83.43,121.52,114.68,101.58,135.81,192.05,209.91,258.02,166.76,192.05,248.0,200.88,108.03,0.1,99999.0,99999.0,99999.0,99999.0,99999.0,99999.0,99999.0,99999.0,99999.0,99999.0,99999.0,99999.0,99999.0,99999.0,99999.0,99999.0,99999.0,99999.0,99999.0,99999.0,99999.0,6.35,99999.0,99999.0,99999.0,99999.0,99999.0,99999.0,99999.0,0.4,12.0,9.92,99999.0,99999.0,99999.0,99999.0,99999.0,99999.0,0.0,3.57,12.0,12.0,12.0,99999.0,0.4,12.0,8.04,48.01,128.56,166.76,183.42,114.68,128.56,121.52,128.56,89.28,108.03,57.14,0.89,99999.0,99999.0,99999.0,22.32,16.76,28.67,28.67,57.14,48.01,35.81,22.32,99999.0,99999.0,99999.0,22.32,9.92,28.67,19.44,3.57
228.56,238.18,174.99,77.77,12.0,14.28,99999.0,2.48,99999.0,99999.0,6.35,99999.0,99999.0,99999.0,99999.0,99999.0,3.57,22.32,12.0,3.57,8.04,67.06,67.06,28.67,2.48,99999.0,99999.0,99999.0,99999.0,99999.0,99999.0,99999.0,99999.0,99999.0,99999.0,99999.0,0.0,14.28,19.44,22.32,8.04,0.89,99999.0,99999.0,99999.0,9.92,39.68,67.06,150.88,158.72,258.02,192.05,77.77,19.44,83.43,101.58,83.43,99999.0,99999.0,99999.0,12.0,99999.0,114.68,300.08,289.27,369.12,300.08,289.27,258.02,28.67,99999.0,99999.0,99999.0,99999.0,99999.0,99999.0,99999.0,99999.0,99999.0,99999.0,99999.0,0.89,3.57,0.0,99999.0,99999.0,99999.0,0.0,19.44,114.68,369.12,238.18,300.08,369.12,300.08,500.07,603.53,381.33,322.3,209.91,16.76,48.01,99999.0,99999.0,99999.0,99999.0,99999.0,99999.0,99999.0,99999.0,99999.0,99999.0,99999.0,99999.0,99999.0,99999.0,99999.0,99999.0,99999.0,99999.0,99999.0,99999.0,99999.0,99999.0,99999.0,99999.0,99999.0,0.0,0.0,77.77,0.0,3.57,300.08,572.98,667.02,750.85,857.98,933.37,1093.68,1404.77,1807.92,2085.68,2261.86,2322.18,2414.14,2445.19,2507.88,2539.53,2603.41,2766.59,2866.89,2900.71,2934.74,2934.74,2934.74,2968.96,2968.96,2968.96,2968.96,2968.96,2968.96,2866.89,2635.65,2635.65,2571.37,2114.55,1807.92,1525.3,895.28,258.02,32.14,716.72,183.42,300.08,121.52,99999.0,99999.0,99999.0,99999.0,99999.0,99999.0,99999.0,99999.0,99999.0,99999.0,99999.0,99999.0,99999.0,99999.0,99999.0,99999.0,99999.0,99999.0,99999.0,99999.0,99999.0,99999.0,99999.0,99999.0,99999.0,99999.0,99999.0,99999.0,99999.0,99999.0,99999.0,99999.0,99999.0,99999.0,99999.0,99999.0,99999.0,99999.0,99999.0,99999.0,99999.0,99999.0,99999.0,99999.0,99999.0,99999.0,99999.0,99999.0,99999.0,99999.0,99999.0,99999.0,99999.0,99999.0,99999.0,99999.0,99999.0,99999.0,99999.0,99999.0,99999.0,99999.0,99999.0,99999.0,99999.0,99999.0,99999.0,99999.0,99999.0,99999.0,99999.0,99999.0,99999.0,99999.0,99999.0,99999.0,99999.0,99999.0,99999.0,99999.0,99999.0,99999.0,99999.0,99999.0,99999.0,99999.0,83.43,89.28,19.44,99999.0,99999.0,19.44,228.56,1072.95,1052.41,876.53,1334.84,992.0,393.73,458.7,572.98,486.08,458.7,432.12,357.12,289.27,432.12,333.71,333.71,322.3,311.09,268.24,268.24,289.27,322.3,357.12,278.65,158.72,192.05,200.88,166.76,228.56,219.13,200.88,228.56,135.81,238.18,289.27,248.0,174.99,219.13,228.56,268.24,238.18,248.0,209.91,77.77,99999.0,99999.0,99999.0,99999.0,99999.0,99999.0,99999.0,99999.0,99999.0,99999.0,16.76,183.42,174.99,95.33,8.04,99999.0,99999.0,99999.0,99999.0,99999.0,99999.0,99999.0,99999.0,52.48,28.67,57.14,3.57,39.68,1.59,14.28,0.0,99999.0,32.14,52.48,101.58,48.01,25.4,114.68,158.72,150.88,48.01,22.32,25.4,48.01,108.03,72.32,72.32,32.14,158.72,183.42,150.88,183.42,114.68,174.99,500.07,419.12,258.02,121.52,99999.0,9.92,8.04,28.67,32.14,52.48,32.14,19.44,39.68,32.14,99999.0,99999.0,99999.0,57.14,43.75,32.14,14.28,28.67
143.25,67.06,43.75,57.14,72.32,35.81,9.92,14.28,99999.0,25.4,57.14,114.68,143.25,150.88,135.81,25.4,99999.0,99999.0,95.33,101.58,128.56,108.03,114.68,62.0,57.14,39.68,62.0,43.75,16.76,3.57,3.57,4.86,16.76,22.32,19.44,6.35,4.86,16.76,0.4,0.1,28.67,14.28,99999.0,77.77,95.33,150.88,150.88,268.24,248.0,248.0,248.0,158.72,278.65,150.88,219.13,258.02,357.12,183.42,99999.0,99999.0,99999.0,158.72,345.32,381.33,357.12,406.32,322.3,333.71,278.65,219.13,67.06,99999.0,99999.0,99999.0,99999.0,99999.0,99999.0,99999.0,99999.0,99999.0,35.81,62.0,43.75,12.0,99999.0,99999.0,99999.0,99999.0,99999.0,77.77,128.56,158.72,209.91,268.24,333.71,445.31,419.12,514.25,634.88,785.76,857.98,750.85,543.22,393.73,150.88,57.14,99999.0,99999.0,99999.0,99999.0,99999.0,99999.0,99999.0,99999.0,99999.0,99999.0,99999.0,99999.0,99999.0,99999.0,99999.0,99999.0,99999.0,99999.0,99999.0,99999.0,0.0,183.42,48.01,72.32,72.32,0.1,238.18,268.24,683.39,1052.41,1011.94,1072.95,1178.6,1476.5,1754.75,1972.2,2172.88,2291.92,2352.63,2445.19,2507.88,2571.37,2603.41,2668.09,2700.73,2733.56,2733.56,2766.59,2799.83,2833.26,2833.26,2866.89,2900.71,2900.71,2866.89,2766.59,2603.41,2261.86,1916.65,1525.3,1200.32,472.29,99999.0,99999.0,99999.0,99999.0,99999.0,99999.0,99999.0,99999.0,99999.0,99999.0,99999.0,99999.0,99999.0,99999.0,99999.0,99999.0,99999.0,99999.0,99999.0,99999.0,99999.0,99999.0,99999.0,99999.0,99999.0,99999.0,99999.0,99999.0,99999.0,99999.0,99999.0,99999.0,99999.0,99999.0,99999.0,99999.0,99999.0,99999.0,99999.0,99999.0,99999.0,99999.0,99999.0,99999.0,99999.0,99999.0,99999.0,99999.0,99999.0,99999.0,99999.0,99999.0,99999.0,99999.0,99999.0,99999.0,99999.0,99999.0,99999.0,99999.0,99999.0,99999.0,99999.0,99999.0,99999.0,99999.0,99999.0,99999.0,99999.0,99999.0,99999.0,99999.0,99999.0,99999.0,99999.0,99999.0,99999.0,99999.0,99999.0,99999.0,99999.0,99999.0,99999.0,99999.0,99999.0,99999.0,99999.0,99999.0,99999.0,99999.0,99999.0,4.86,99999.0,99999.0,99999.0,12.0,99999.0,357.12,750.85,839.63,486.08,972.26,933.37,914.23,750.85,683.39,458.7,432.12,289.27,300.08,311.09,300.08,248.0,248.0,311.09,209.91,209.91,268.24,278.65,209.91,228.56,268.24,278.65,238.18,268.24,345.32,183.42,238.18,200.88,248.0,183.42,248.0,322.3,699.96,258.02,543.22,219.13,228.56,228.56,258.02,289.27,238.18,238.18,192.05,258.02,268.24,166.76,28.67,99999.0,99999.0,99999.0,99999.0,99999.0,99999.0,19.44,32.14,14.28,99999.0,99999.0,99999.0,99999.0,99999.0,99999.0,2.48,57.14,114.68,62.0,77.77,77.77,67.06,32.14,14.28,2.48,28.67,83.43,83.43,128.56,135.81,135.81,166.76,108.03,67.06,135.81,114.68,121.52,43.75,95.33,114.68,143.25,192.05,135.81,57.14,166.76,158.72,183.42,219.13,174.99,345.32,472.29,486.08,101.58,108.03,121.52,43.75,28.67,48.01,43.75,48.01,39.68,32.14,25.4,12.0,99999.0,99999.0,99999.0,99999.0,25.4,22.32,22.32,19.44
472.29,322.3,311.09,345.32,472.29,445.31,458.7,381.33,393.73,381.33,393.73,357.12,322.3,369.12,322.3,248.0,95.33,95.33,99999.0,150.88,209.91,192.05,166.76,166.76,143.25,128.56,121.52,108.03,114.68,83.43,77.77,89.28,83.43,83.43,67.06,83.43,83.43,48.01,83.43,52.48,12.0,8.04,25.4,0.89,128.56,192.05,200.88,158.72,278.65,238.18,300.08,300.08,357.12,322.3,406.32,333.71,258.02,258.02,108.03,0.4,52.48,278.65,219.13,158.72,200.88,268.24,357.12,311.09,238.18,183.42,158.72,99999.0,99999.0,99999.0,99999.0,99999.0,99999.0,99999.0,99999.0,99999.0,0.89,0.0,99999.0,99999.0,99999.0,99999.0,99999.0,99999.0,99999.0,99999.0,35.81,57.14,174.99,158.72,300.08,300.08,500.07,406.32,445.31,785.76,972.26,1500.8,1889.17,1600.0,650.85,158.72,12.0,158.72,99999.0,99999.0,99999.0,99999.0,99999.0,99999.0,99999.0,99999.0,99999.0,99999.0,99999.0,99999.0,99999.0,99999.0,99999.0,99999.0,99999.0,99999.0,121.52,393.73,952.72,650.85,603.53,458.7,528.64,300.08,572.98,857.98,1072.95,1266.69,1500.8,1650.79,1834.81,2000.27,2114.55,2261.86,2322.18,2383.28,2414.14,2445.19,2507.88,2539.53,2539.53,2476.43,2414.14,2322.18,2322.18,2322.18,2352.63,2445.19,2539.53,2766.59,2900.71,2833.26,2635.65,2507.88,2114.55,1357.95,445.31,99999.0,99999.0,99999.0,99999.0,99999.0,99999.0,99999.0,99999.0,99999.0,99999.0,99999.0,99999.0,99999.0,99999.0,99999.0,99999.0,99999.0,99999.0,99999.0,99999.0,99999.0,99999.0,99999.0,99999.0,99999.0,99999.0,99999.0,99999.0,99999.0,99999.0,99999.0,99999.0,99999.0,99999.0,99999.0,99999.0,99999.0,99999.0,99999.0,99999.0,99999.0,99999.0,99999.0,99999.0,99999.0,99999.0,99999.0,99999.0,99999.0,99999.0,99999.0,99999.0,99999.0,99999.0,99999.0,99999.0,99999.0,99999.0,99999.0,99999.0,99999.0,99999.0,99999.0,99999.0,99999.0,99999.0,99999.0,99999.0,99999.0,99999.0,99999.0,99999.0,99999.0,99999.0,99999.0,99999.0,99999.0,99999.0,99999.0,99999.0,99999.0,99999.0,99999.0,99999.0,99999.0,99999.0,99999.0,99999.0,99999.0,99999.0,99999.0,99999.0,99999.0,99999.0,99999.0,99999.0,77.77,39.68,432.12,992.0,1032.08,1200.32,1244.37,1032.08,933.37,445.31,458.7,458.7,458.7,406.32,406.32,248.0,174.99,166.76,158.72,228.56,183.42,200.88,200.88,268.24,200.88,174.99,209.91,183.42,228.56,228.56,268.24,289.27,357.12,419.12,278.65,143.25,158.72,150.88,95.33,128.56,219.13,183.42,219.13,209.91,192.05,150.88,166.76,200.88,228.56,219.13,209.91,209.91,192.05,1.59,99999.0,99999.0,99999.0,99999.0,99999.0,28.67,9.92,2.48,99999.0,99999.0,99999.0,99999.0,99999.0,77.77,219.13,121.52,62.0,32.14,32.14,48.01,16.76,35.81,62.0,25.4,128.56,121.52,114.68,108.03,108.03,128.56,77.77,83.43,101.58,67.06,101.58,121.52,121.52,128.56,95.33,128.56,108.03,77.77,121.52,128.56,135.81,192.05,238.18,514.25,322.3,603.53,419.12,300.08,114.68,67.06,12.0,25.4,28.67,32.14,35.81,3.57,12.0,0.89,99999.0,99999.0,99999.0,35.81,43.75,39.68,28.67,22.32,9.92
472.29,300.08,322.3,311.09,445.31,458.7,500.07,458.7,572.98,486.08,472.29,381.33,369.12,333.71,322.3,300.08,289.27,300.08,0.0,150.88,174.99,209.91,209.91,238.18,200.88,183.42,158.72,174.99,166.76,135.81,150.88,143.25,143.25,158.72,143.25,128.56,135.81,128.56,114.68,128.56,101.58,43.75,39.68,101.58,289.27,300.08,300.08,289.27,228.56,150.88,228.56,300.08,369.12,369.12,357.12,289.27,289.27,322.3,289.27,174.99,19.44,108.03,128.56,143.25,209.91,28.67,150.88,248.0,150.88,12.0,99999.0,99999.0,99999.0,99999.0,99999.0,99999.0,99999.0,99999.0,99999.0,99999.0,99999.0,99999.0,99999.0,99999.0,99999.0,99999.0,99999.0,99999.0,2.48,12.0,43.75,28.67,28.67,35.81,28.67,135.81,143.25,174.99,268.24,278.65,514.25,500.07,1178.6,1404.77,803.52,528.64,768.21,699.96,345.32,603.53,716.72,99999.0,99999.0,99999.0,99999.0,99999.0,99999.0,99999.0,99999.0,99999.0,99999.0,99999.0,99999.0,99999.0,99999.0,99999.0,99999.0,101.58,121.52,300.08,200.88,311.09,311.09,406.32,345.32,634.88,1200.32,1500.8,1625.3,1728.46,2000.27,2085.68,2143.62,2232.0,2291.92,2291.92,2291.92,2322.18,2322.18,2291.92,2202.34,2085.68,1944.32,1972.2,2143.62,2172.88,2000.27,1754.75,1728.46,2057.02,1476.5,1676.48,1650.79,1289.21,1157.07,445.31,99999.0,99999.0,99999.0,99999.0,99999.0,99999.0,99999.0,99999.0,99999.0,99999.0,99999.0,99999.0,99999.0,99999.0,99999.0,99999.0,99999.0,99999.0,99999.0,99999.0,99999.0,99999.0,99999.0,99999.0,99999.0,99999.0,99999.0,99999.0,99999.0,99999.0,99999.0,99999.0,99999.0,99999.0,99999.0,99999.0,99999.0,99999.0,99999.0,99999.0,99999.0,99999.0,99999.0,99999.0,99999.0,99999.0,99999.0,99999.0,99999.0,99999.0,99999.0,99999.0,99999.0,99999.0,99999.0,99999.0,99999.0,99999.0,99999.0,99999.0,99999.0,99999.0,99999.0,99999.0,99999.0,99999.0,99999.0,99999.0,99999.0,99999.0,99999.0,99999.0,99999.0,99999.0,99999.0,99999.0,99999.0,99999.0,99999.0,99999.0,99999.0,99999.0,99999.0,99999.0,99999.0,99999.0,99999.0,99999.0,99999.0,99999.0,99999.0,99999.0,99999.0,99999.0,0.89,322.3,683.39,1011.94,1178.6,803.52,876.53,1032.08,683.39,733.68,558.0,486.08,311.09,333.71,278.65,381.33,381.33,248.0,135.81,121.52,166.76,135.81,174.99,135.81,166.76,166.76,150.88,200.88,209.91,183.42,209.91,300.08,322.3,345.32,192.05,143.25,228.56,62.0,43.75,28.67,99999.0,99999.0,32.14,83.43,114.68,114.68,135.81,150.88,192.05,192.05,174.99,219.13,219.13,248.0,219.13,143.25,99999.0,99999.0,99999.0,0.0,99999.0,99999.0,99999.0,25.4,28.67,25.4,16.76,19.44,19.44,12.0,52.48,166.76,108.03,158.72,128.56,135.81,128.56,128.56,28.67,19.44,35.81,101.58,158.72,114.68,101.58,95.33,95.33,114.68,108.03,114.68,128.56,135.81,57.14,95.33,128.56,95.33,48.01,89.28,150.88,95.33,89.28,238.18,458.7,572.98,135.81,89.28,95.33,22.32,3.57,3.57,4.86,39.68,99999.0,9.92,9.92,4.86,8.04,99999.0,99999.0,99999.0,6.35,28.67,43.75,62.0,57.14,48.01,43.75,35.81
333.71,419.12,458.7,419.12,333.71,322.3,322.3,345.32,393.73,558.0,514.25,419.12,419.12,432.12,472.29,345.32,311.09,345.32,322.3,150.88,289.27,300.08,300.08,238.18,258.02,248.0,228.56,200.88,174.99,174.99,158.72,158.72,158.72,192.05,183.42,150.88,150.88,150.88,135.81,143.25,143.25,95.33,150.88,166.76,311.09,300.08,300.08,322.3,345.32,300.08,289.27,300.08,278.65,322.3,381.33,357.12,289.27,300.08,219.13,150.88,89.28,52.48,99999.0,99999.0,28.67,0.0,67.06,99999.0,99999.0,99999.0,99999.0,99999.0,99999.0,99999.0,99999.0,99999.0,99999.0,99999.0,99999.0,99999.0,99999.0,99999.0,99999.0,99999.0,99999.0,0.0,1.59,25.4,62.0,67.06,83.43,32.14,28.67,28.67,28.67,28.67,135.81,89.28,62.0,0.0,99999.0,67.06,619.11,914.23,143.25,1114.61,733.68,1244.37,83.43,114.68,99999.0,99999.0,99999.0,99999.0,99999.0,99999.0,99999.0,99999.0,99999.0,99999.0,99999.0,99999.0,99999.0,99999.0,99999.0,99999.0,99999.0,500.07,419.12,1972.2,1781.24,803.52,1093.68,914.23,895.28,1011.94,1357.95,1500.8,1781.24,1944.32,2000.27,2085.68,2232.0,2383.28,2445.19,2445.19,2414.14,2352.63,2261.86,2114.55,1916.65,1676.48,1574.9,1525.3,1525.3,1381.26,1114.61,914.23,128.56,992.0,1381.26,768.21,357.12,99999.0,99999.0,99999.0,99999.0,99999.0,99999.0,99999.0,99999.0,99999.0,99999.0,99999.0,99999.0,99999.0,99999.0,99999.0,99999.0,99999.0,99999.0,99999.0,99999.0,99999.0,99999.0,99999.0,99999.0,99999.0,268.24,381.33,99999.0,99999.0,99999.0,99999.0,99999.0,99999.0,99999.0,99999.0,99999.0,99999.0,99999.0,158.72,143.25,25.4,99999.0,99999.0,99999.0,99999.0,99999.0,99999.0,99999.0,99999.0,99999.0,99999.0,99999.0,99999.0,99999.0,99999.0,99999.0,99999.0,99999.0,99999.0,99999.0,99999.0,99999.0,99999.0,99999.0,99999.0,99999.0,99999.0,99999.0,99999.0,99999.0,99999.0,99999.0,99999.0,99999.0,99999.0,99999.0,99999.0,99999.0,99999.0,99999.0,99999.0,99999.0,99999.0,99999.0,99999.0,99999.0,99999.0,99999.0,99999.0,99999.0,99999.0,99999.0,99999.0,99999.0,99999.0,0.0,67.06,322.3,192.05,472.29,785.76,803.52,914.23,785.76,603.53,445.31,543.22,603.53,458.7,588.16,458.7,289.27,192.05,200.88,89.28,200.88,89.28,101.58,72.32,114.68,89.28,67.06,121.52,200.88,183.42,183.42,289.27,248.0,258.02,311.09,228.56,300.08,121.52,143.25,128.56,150.88,83.43,48.01,52.48,99999.0,99999.0,99999.0,99999.0,99999.0,99999.0,28.67,114.68,135.81,121.52,101.58,25.4,99999.0,99999.0,99999.0,99999.0,25.4,28.67,22.32,0.0,39.68,67.06,72.32,39.68,83.43,28.67,52.48,77.77,77.77,95.33,121.52,114.68,174.99,128.56,83.43,150.88,57.14,28.67,62.0,143.25,150.88,121.52,72.32,43.75,43.75,48.01,57.14,143.25,52.48,83.43,150.88,83.43,52.48,95.33,89.28,77.77,114.68,228.56,716.72,135.81,52.48,67.06,43.75,14.28,3.57,32.14,14.28,2.48,28.67,39.68,48.01,39.68,22.32,39.68,43.75,14.28,3.57,19.44,35.81,39.68,39.68,39.68,67.06,77.77,62.0,62.0
369.12,381.33,472.29,514.25,472.29,322.3,393.73,543.22,514.25,486.08,558.0,486.08,419.12,472.29,558.0,472.29,381.33,406.32,357.12,300.08,258.02,300.08,278.65,289.27,300.08,278.65,248.0,209.91,183.42,158.72,192.05,192.05,150.88,158.72,150.88,150.88,128.56,135.81,150.88,143.25,121.52,128.56,150.88,200.88,258.02,300.08,300.08,311.09,300.08,300.08,311.09,311.09,278.65,289.27,128.56,99999.0,200.88,183.42,166.76,135.81,43.75,99999.0,9.92,35.81,219.13,99999.0,0.0,16.76,99999.0,99999.0,99999.0,99999.0,99999.0,99999.0,99999.0,99999.0,99999.0,99999.0,99999.0,99999.0,99999.0,99999.0,99999.0,99999.0,99999.0,99999.0,99999.0,28.67,67.06,150.88,77.77,67.06,150.88,158.72,209.91,258.02,289.27,166.76,0.89,0.4,99999.0,99999.0,2.48,357.12,458.7,650.85,258.02,357.12,143.25,62.0,99999.0,99999.0,99999.0,99999.0,99999.0,99999.0,99999.0,99999.0,99999.0,99999.0,99999.0,99999.0,99999.0,99999.0,99999.0,99999.0,99999.0,1.59,238.18,933.37,558.0,369.12,121.52,895.28,1093.68,1178.6,1381.26,1574.9,1944.32,2114.55,2143.62,2291.92,2476.43,2635.65,2733.56,2603.41,2445.19,2414.14,2352.63,2057.02,1550.0,1289.21,1178.6,1072.95,821.48,445.31,558.0,381.33,322.3,32.14,0.0,99999.0,99999.0,99999.0,99999.0,99999.0,99999.0,99999.0,99999.0,99999.0,99999.0,99999.0,99999.0,99999.0,99999.0,99999.0,99999.0,99999.0,99999.0,99999.0,99999.0,99999.0,99999.0,99999.0,99999.0,99999.0,158.72,258.02,458.7,432.12,158.72,99999.0,99999.0,72.32,369.12,432.12,952.72,300.08,588.16,248.0,528.64,381.33,716.72,500.07,200.88,0.0,99999.0,99999.0,99999.0,99999.0,99999.0,99999.0,99999.0,99999.0,99999.0,99999.0,99999.0,99999.0,99999.0,99999.0,99999.0,99999.0,99999.0,99999.0,99999.0,99999.0,99999.0,99999.0,99999.0,99999.0,99999.0,99999.0,99999.0,99999.0,99999.0,99999.0,99999.0,99999.0,99999.0,99999.0,99999.0,99999.0,99999.0,99999.0,99999.0,99999.0,99999.0,99999.0,99999.0,99999.0,99999.0,99999.0,99999.0,99999.0,99999.0,99999.0,99999.0,99999.0,99999.0,472.29,135.81,750.85,768.21,699.96,683.39,785.76,588.16,603.53,419.12,472.29,432.12,458.7,432.12,369.12,300.08,158.72,89.28,19.44,16.76,3.57,0.0,1.59,0.0,28.67,52.48,108.03,135.81,150.88,143.25,248.0,278.65,258.02,258.02,289.27,258.02,192.05,135.81,108.03,114.68,95.33,77.77,77.77,48.01,6.35,99999.0,99999.0,99999.0,99999.0,99999.0,99999.0,99999.0,99999.0,99999.0,99999.0,12.0,77.77,83.43,48.01,67.06,121.52,28.67,35.81,14.28,19.44,28.67,57.14,39.68,48.01,57.14,67.06,95.33,95.33,89.28,95.33,83.43,108.03,95.33,114.68,28.67,135.81,114.68,83.43,89.28,67.06,121.52,101.58,67.06,52.48,57.14,62.0,72.32,121.52,57.14,108.03,183.42,345.32,248.0,381.33,750.85,419.12,192.05,77.77,14.28,4.86,6.35,4.86,6.35,14.28,19.44,14.28,52.48,35.81,39.68,32.14,39.68,39.68,12.0,9.92,14.28,12.0,39.68,48.01,35.81,57.14,89.28,95.33,83.43,39.68
369.12,369.12,369.12,445.31,528.64,528.64,393.73,486.08,419.12,419.12,472.29,500.07,486.08,486.08,458.7,486.08,472.29,432.12,322.3,300.08,322.3,289.27,300.08,300.08,248.0,228.56,200.88,183.42,200.88,192.05,183.42,192.05,158.72,166.76,174.99,158.72,183.42,143.25,158.72,135.81,150.88,128.56,121.52,166.76,150.88,150.88,174.99,258.02,268.24,289.27,258.02,248.0,289.27,300.08,311.09,278.65,278.65,32.14,4.86,14.28,99999.0,99999.0,48.01,32.14,3.57,166.76,99999.0,99999.0,99999.0,99999.0,99999.0,99999.0,99999.0,99999.0,99999.0,99999.0,99999.0,99999.0,99999.0,19.44,12.0,16.76,0.89,0.0,6.35,12.0,28.67,95.33,62.0,150.88,143.25,108.03,150.88,300.08,345.32,381.33,357.12,419.12,357.12,114.68,0.0,99999.0,99999.0,99999.0,52.48,300.08,200.88,12.0,99999.0,99999.0,99999.0,99999.0,99999.0,99999.0,99999.0,99999.0,99999.0,99999.0,99999.0,99999.0,99999.0,99999.0,99999.0,99999.0,99999.0,99999.0,99999.0,99999.0,99999.0,89.28,500.07,333.71,543.22,603.53,933.37,1178.6,1334.84,1476.5,1650.79,2057.02,2202.34,2445.19,2571.37,2603.41,2603.41,2539.53,2445.19,2261.86,2057.02,1728.46,1381.26,1052.41,839.63,619.11,0.0,99999.0,99999.0,99999.0,99999.0,99999.0,99999.0,99999.0,99999.0,99999.0,99999.0,99999.0,99999.0,99999.0,99999.0,99999.0,99999.0,99999.0,99999.0,99999.0,99999.0,99999.0,99999.0,99999.0,99999.0,99999.0,99999.0,99999.0,99999.0,99999.0,99999.0,99999.0,99999.0,99999.0,99999.0,445.31,101.58,200.88,150.88,432.12,458.7,667.02,667.02,768.21,876.53,486.08,528.64,528.64,683.39,528.64,619.11,650.85,458.7,99999.0,99999.0,99999.0,99999.0,99999.0,99999.0,99999.0,99999.0,99999.0,99999.0,99999.0,99999.0,99999.0,99999.0,99999.0,99999.0,99999.0,99999.0,99999.0,99999.0,99999.0,99999.0,99999.0,99999.0,99999.0,99999.0,99999.0,99999.0,99999.0,99999.0,99999.0,99999.0,99999.0,99999.0,99999.0,99999.0,99999.0,99999.0,99999.0,99999.0,99999.0,99999.0,99999.0,99999.0,99999.0,99999.0,99999.0,99999.0,99999.0,99999.0,99999.0,32.14,128.56,528.64,1072.95,992.0,768.21,895.28,500.07,514.25,345.32,572.98,357.12,357.12,333.71,300.08,333.71,311.09,228.56,72.32,0.4,99999.0,99999.0,99999.0,99999.0,99999.0,99999.0,0.0,57.14,121.52,108.03,121.52,174.99,238.18,258.02,209.91,219.13,150.88,135.81,143.25,135.81,150.88,101.58,108.03,83.43,52.48,99999.0,99999.0,99999.0,99999.0,99999.0,99999.0,99999.0,99999.0,99999.0,99999.0,99999.0,72.32,114.68,114.68,108.03,150.88,128.56,32.14,35.81,39.68,43.75,32.14,39.68,67.06,101.58,101.58,108.03,174.99,174.99,166.76,248.0,238.18,89.28,101.58,89.28,101.58,77.77,52.48,77.77,62.0,95.33,114.68,72.32,89.28,67.06,67.06,143.25,108.03,174.99,258.02,667.02,1011.94,895.28,857.98,486.08,67.06,143.25,101.58,108.03,200.88,8.04,16.76,32.14,28.67,8.04,25.4,83.43,77.77,52.48,52.48,32.14,62.0,89.28,57.14,43.75,16.76,16.76,16.76,32.14,57.14,62.0,72.32,77.77,62.0,32.14
289.27,300.08,300.08,333.71,406.32,486.08,500.07,486.08,472.29,419.12,445.31,472.29,486.08,472.29,458.7,406.32,419.12,406.32,333.71,345.32,333.71,300.08,311.09,300.08,278.65,278.65,300.08,219.13,174.99,166.76,143.25,174.99,150.88,114.68,101.58,135.81,135.81,114.68,83.43,95.33,95.33,121.52,128.56,150.88,108.03,128.56,101.58,143.25,150.88,166.76,174.99,166.76,143.25,166.76,192.05,228.56,209.91,143.25,77.77,99999.0,99999.0,1.59,39.68,62.0,121.52,311.09,322.3,357.12,278.65,43.75,99999.0,99999.0,99999.0,99999.0,99999.0,99999.0,99999.0,0.0,150.88,248.0,158.72,108.03,35.81,8.04,0.0,6.35,72.32,135.81,219.13,150.88,108.03,108.03,150.88,135.81,248.0,357.12,486.08,528.64,572.98,572.98,419.12,278.65,432.12,39.68,99999.0,99999.0,99999.0,99999.0,99999.0,99999.0,99999.0,99999.0,99999.0,99999.0,99999.0,99999.0,99999.0,99999.0,99999.0,99999.0,99999.0,99999.0,99999.0,99999.0,99999.0,99999.0,99999.0,99999.0,99999.0,99999.0,158.72,72.32,99999.0,99999.0,634.88,1093.68,1381.26,1550.0,1834.81,2028.54,2202.34,2507.88,2571.37,2603.41,2603.41,2603.41,2603.41,2414.14,2114.55,1972.2,1574.9,1011.94,278.65,99999.0,99999.0,99999.0,99999.0,99999.0,99999.0,99999.0,99999.0,99999.0,99999.0,99999.0,99999.0,99999.0,99999.0,99999.0,99999.0,99999.0,99999.0,99999.0,99999.0,99999.0,99999.0,99999.0,99999.0,99999.0,99999.0,99999.0,99999.0,99999.0,99999.0,99999.0,99999.0,99999.0,99999.0,99999.0,99999.0,28.67,200.88,192.05,333.71,857.98,785.76,699.96,1222.25,733.68,1032.08,1357.95,1052.41,895.28,768.21,785.76,558.0,311.09,99999.0,99999.0,99999.0,99999.0,99999.0,99999.0,99999.0,99999.0,99999.0,99999.0,99999.0,99999.0,99999.0,99999.0,99999.0,99999.0,99999.0,99999.0,99999.0,99999.0,99999.0,99999.0,99999.0,99999.0,99999.0,99999.0,99999.0,99999.0,99999.0,99999.0,99999.0,99999.0,99999.0,99999.0,99999.0,99999.0,99999.0,99999.0,99999.0,99999.0,99999.0,99999.0,99999.0,99999.0,99999.0,99999.0,99999.0,99999.0,99999.0,99999.0,12.0,108.03,345.32,268.24,500.07,558.0,558.0,716.72,500.07,528.64,357.12,406.32,500.07,445.31,311.09,278.65,228.56,289.27,238.18,95.33,9.92,99999.0,99999.0,99999.0,99999.0,99999.0,99999.0,25.4,52.48,28.67,83.43,128.56,158.72,200.88,248.0,192.05,192.05,209.91,228.56,209.91,174.99,121.52,114.68,135.81,114.68,95.33,67.06,4.86,99999.0,99999.0,99999.0,62.0,108.03,101.58,6.35,14.28,99999.0,99999.0,3.57,25.4,52.48,108.03,114.68,83.43,67.06,39.68,62.0,77.77,67.06,67.06,62.0,174.99,158.72,77.77,114.68,192.05,150.88,248.0,300.08,209.91,192.05,200.88,158.72,166.76,121.52,89.28,114.68,150.88,128.56,150.88,108.03,143.25,135.81,89.28,143.25,289.27,500.07,785.76,381.33,333.71,381.33,121.52,114.68,128.56,72.32,43.75,48.01,52.48,4.86,32.14,22.32,32.14,32.14,39.68,77.77,62.0,77.77,72.32,77.77,62.0,57.14,62.0,67.06,52.48,62.0,39.68,57.14,62.0,67.06,57.14,43.75,28.67
300.08,289.27,289.27,268.24,300.08,345.32,419.12,419.12,472.29,514.25,432.12,419.12,432.12,406.32,406.32,369.12,369.12,357.12,432.12,357.12,345.32,322.3,381.33,322.3,311.09,268.24,158.72,150.88,121.52,128.56,158.72,166.76,158.72,150.88,135.81,114.68,150.88,150.88,143.25,121.52,35.81,1.59,1.59,1.59,4.86,35.81,12.0,43.75,67.06,95.33,77.77,150.88,57.14,16.76,0.89,121.52,108.03,22.32,99999.0,99999.0,99999.0,0.4,62.0,52.48,77.77,158.72,166.76,83.43,72.32,108.03,8.04,99999.0,99999.0,99999.0,99999.0,99999.0,99999.0,99999.0,99999.0,99999.0,108.03,99999.0,99999.0,99999.0,99999.0,99999.0,0.0,0.0,150.88,143.25,289.27,300.08,192.05,183.42,166.76,238.18,445.31,543.22,634.88,619.11,619.11,716.72,733.68,43.75,19.44,99999.0,99999.0,99999.0,99999.0,99999.0,99999.0,99999.0,99999.0,99999.0,99999.0,99999.0,99999.0,99999.0,99999.0,99999.0,99999.0,99999.0,99999.0,99999.0,99999.0,99999.0,99999.0,99999.0,99999.0,99999.0,0.0,209.91,572.98,458.7,603.53,785.76,1381.26,1781.24,2000.27,2143.62,2291.92,2476.43,2571.37,2603.41,2668.09,2733.56,2635.65,2507.88,2261.86,1972.2,1500.8,99999.0,101.58,99999.0,99999.0,99999.0,99999.0,99999.0,99999.0,99999.0,99999.0,99999.0,99999.0,99999.0,99999.0,99999.0,99999.0,99999.0,99999.0,99999.0,99999.0,99999.0,99999.0,99999.0,99999.0,99999.0,99999.0,99999.0,99999.0,99999.0,99999.0,99999.0,99999.0,99999.0,99999.0,99999.0,99999.0,99999.0,99999.0,99999.0,345.32,219.13,419.12,135.81,528.64,419.12,603.53,750.85,1114.61,952.72,1500.8,857.98,311.09,99999.0,99999.0,99999.0,99999.0,99999.0,99999.0,99999.0,99999.0,99999.0,99999.0,99999.0,99999.0,99999.0,99999.0,99999.0,99999.0,99999.0,99999.0,99999.0,99999.0,99999.0,99999.0,99999.0,99999.0,99999.0,99999.0,99999.0,99999.0,99999.0,99999.0,99999.0,99999.0,99999.0,99999.0,99999.0,99999.0,99999.0,99999.0,99999.0,99999.0,99999.0,99999.0,99999.0,99999.0,99999.0,99999.0,99999.0,99999.0,99999.0,99999.0,99999.0,0.89,278.65,95.33,322.3,57.14,393.73,750.85,472.29,857.98,558.0,333.71,333.71,322.3,369.12,393.73,369.12,322.3,300.08,278.65,219.13,219.13,114.68,99999.0,99999.0,99999.0,99999.0,99999.0,1.59,43.75,72.32,135.81,95.33,121.52,143.25,114.68,150.88,200.88,192.05,192.05,158.72,238.18,238.18,209.91,183.42,183.42,143.25,114.68,95.33,67.06,62.0,35.81,35.81,99999.0,0.0,99999.0,99999.0,121.52,121.52,150.88,72.32,67.06,57.14,28.67,3.57,48.01,32.14,72.32,77.77,48.01,62.0,77.77,89.28,48.01,95.33,183.42,174.99,158.72,108.03,166.76,174.99,192.05,278.65,200.88,166.76,278.65,158.72,101.58,108.03,121.52,143.25,135.81,121.52,135.81,150.88,135.81,114.68,158.72,228.56,472.29,393.73,278.65,48.01,14.28,16.76,39.68,101.58,150.88,101.58,150.88,101.58,35.81,14.28,22.32,121.52,143.25,67.06,89.28,101.58,72.32,114.68,121.52,121.52,89.28,121.52,72.32,89.28,57.14,77.77,83.43,67.06,77.77,67.06,43.75,35.81
166.76,268.24,268.24,300.08,300.08,311.09,333.71,369.12,406.32,458.7,486.08,558.0,458.7,419.12,406.32,381.33,419.12,381.33,381.33,357.12,357.12,345.32,333.71,311.09,248.0,209.91,289.27,311.09,289.27,166.76,322.3,219.13,200.88,158.72,158.72,143.25,143.25,158.72,150.88,101.58,77.77,121.52,43.75,72.32,57.14,39.68,16.76,9.92,8.04,0.1,0.0,4.86,32.14,0.89,99999.0,99999.0,99999.0,99999.0,99999.0,99999.0,9.92,0.89,99999.0,62.0,19.44,8.04,99999.0,99999.0,99999.0,2.48,0.89,39.68,39.68,99999.0,99999.0,99999.0,99999.0,99999.0,99999.0,2.48,99999.0,99999.0,99999.0,99999.0,99999.0,99999.0,99999.0,99999.0,0.0,0.0,16.76,183.42,300.08,528.64,393.73,345.32,32.14,150.88,166.76,572.98,619.11,683.39,716.72,445.31,143.25,52.48,99999.0,99999.0,99999.0,99999.0,99999.0,99999.0,99999.0,99999.0,99999.0,99999.0,99999.0,99999.0,99999.0,99999.0,99999.0,99999.0,99999.0,99999.0,99999.0,99999.0,99999.0,99999.0,99999.0,99999.0,99999.0,108.03,914.23,785.76,1404.77,1500.8,1574.9,1807.92,2057.02,2202.34,2322.18,2445.19,2603.41,2668.09,2733.56,2799.83,2733.56,2507.88,2172.88,1650.79,1404.77,2.48,0.89,99999.0,99999.0,99999.0,99999.0,99999.0,99999.0,99999.0,99999.0,99999.0,99999.0,99999.0,99999.0,99999.0,99999.0,99999.0,99999.0,99999.0,99999.0,99999.0,99999.0,99999.0,99999.0,99999.0,99999.0,99999.0,99999.0,99999.0,99999.0,99999.0,99999.0,99999.0,99999.0,99999.0,99999.0,99999.0,99999.0,99999.0,99999.0,99999.0,99999.0,19.44,406.32,895.28,333.71,150.88,4.86,99999.0,99999.0,99999.0,99999.0,99999.0,99999.0,99999.0,99999.0,99999.0,99999.0,99999.0,99999.0,99999.0,99999.0,99999.0,99999.0,99999.0,99999.0,99999.0,99999.0,99999.0,99999.0,99999.0,99999.0,99999.0,99999.0,99999.0,99999.0,99999.0,99999.0,99999.0,99999.0,99999.0,99999.0,99999.0,99999.0,99999.0,99999.0,99999.0,99999.0,99999.0,99999.0,99999.0,99999.0,99999.0,99999.0,99999.0,99999.0,99999.0,99999.0,99999.0,99999.0,19.44,99999.0,43.75,248.0,219.13,48.01,268.24,514.25,667.02,558.0,472.29,572.98,345.32,322.3,278.65,278.65,219.13,322.3,311.09,311.09,248.0,219.13,128.56,12.0,99999.0,99999.0,99999.0,99999.0,4.86,22.32,67.06,114.68,128.56,108.03,158.72,143.25,135.81,143.25,150.88,209.91,150.88,150.88,200.88,209.91,219.13,200.88,219.13,209.91,135.81,114.68,128.56,77.77,77.77,108.03,135.81,95.33,77.77,52.48,52.48,62.0,43.75,25.4,39.68,62.0,48.01,39.68,39.68,32.14,67.06,128.56,150.88,95.33,67.06,89.28,143.25,183.42,174.99,143.25,108.03,150.88,166.76,166.76,209.91,166.76,183.42,158.72,135.81,166.76,200.88,150.88,101.58,128.56,150.88,174.99,158.72,143.25,89.28,121.52,158.72,238.18,333.71,634.88,300.08,95.33,150.88,57.14,19.44,57.14,114.68,83.43,62.0,77.77,19.44,4.86,3.57,14.28,22.32,16.76,43.75,35.81,52.48,83.43,89.28,83.43,95.33,108.03,108.03,77.77,72.32,89.28,95.33,101.58,89.28,62.0,67.06,62.0,57.14
183.42,183.42,150.88,200.88,300.08,289.27,300.08,300.08,333.71,406.32,486.08,543.22,369.12,486.08,458.7,369.12,333.71,381.33,357.12,357.12,369.12,357.12,322.3,322.3,228.56,289.27,311.09,300.08,268.24,238.18,228.56,228.56,289.27,300.08,300.08,278.65,238.18,174.99,150.88,95.33,150.88,150.88,135.81,95.33,89.28,135.81,57.14,72.32,28.67,28.67,114.68,121.52,0.0,99999.0,99999.0,99999.0,99999.0,99999.0,99999.0,99999.0,99999.0,99999.0,99999.0,32.14,0.0,99999.0,99999.0,99999.0,99999.0,99999.0,99999.0,99999.0,99999.0,99999.0,99999.0,99999.0,99999.0,99999.0,67.06,99999.0,99999.0,99999.0,99999.0,99999.0,99999.0,99999.0,99999.0,99999.0,99999.0,99999.0,2.48,300.08,166.76,289.27,300.08,558.0,588.16,248.0,6.35,99999.0,228.56,258.02,603.53,458.7,0.0,99999.0,99999.0,99999.0,99999.0,99999.0,99999.0,99999.0,99999.0,99999.0,99999.0,99999.0,99999.0,99999.0,99999.0,99999.0,99999.0,99999.0,99999.0,99999.0,99999.0,99999.0,99999.0,99999.0,99999.0,99999.0,99999.0,99999.0,101.58,228.56,603.53,1357.95,1781.24,2000.27,2143.62,2261.86,2476.43,2539.53,2603.41,2668.09,2700.73,2603.41,2352.63,2000.27,1381.26,458.7,357.12,12.0,99999.0,99999.0,99999.0,99999.0,99999.0,99999.0,99999.0,99999.0,99999.0,99999.0,99999.0,99999.0,99999.0,99999.0,99999.0,99999.0,99999.0,99999.0,99999.0,99999.0,99999.0,99999.0,99999.0,99999.0,99999.0,99999.0,99999.0,99999.0,99999.0,99999.0,99999.0,99999.0,99999.0,99999.0,99999.0,99999.0,99999.0,99999.0,99999.0,99999.0,99999.0,99999.0,99999.0,99999.0,99999.0,99999.0,99999.0,99999.0,99999.0,99999.0,99999.0,99999.0,99999.0,99999.0,99999.0,99999.0,99999.0,99999.0,99999.0,99999.0,99999.0,99999.0,99999.0,99999.0,99999.0,99999.0,99999.0,99999.0,99999.0,99999.0,99999.0,99999.0,99999.0,99999.0,99999.0,99999.0,99999.0,99999.0,99999.0,99999.0,99999.0,99999.0,99999.0,99999.0,99999.0,99999.0,99999.0,99999.0,99999.0,99999.0,99999.0,99999.0,99999.0,99999.0,99999.0,99999.0,99999.0,99999.0,9.92,458.7,472.29,174.99,143.25,406.32,486.08,803.52,750.85,667.02,543.22,419.12,289.27,381.33,268.24,369.12,333.71,238.18,121.52,209.91,174.99,14.28,99999.0,99999.0,99999.0,99999.0,2.48,3.57,8.04,48.01,72.32,83.43,166.76,192.05,158.72,150.88,135.81,108.03,95.33,150.88,101.58,158.72,114.68,89.28,166.76,183.42,228.56,200.88,166.76,228.56,135.81,108.03,135.81,114.68,150.88,150.88,183.42,192.05,209.91,200.88,150.88,67.06,43.75,150.88,150.88,77.77,32.14,22.32,39.68,143.25,121.52,174.99,158.72,174.99,174.99,150.88,183.42,128.56,150.88,135.81,121.52,150.88,128.56,174.99,158.72,150.88,143.25,135.81,166.76,192.05,166.76,166.76,114.68,108.03,121.52,114.68,108.03,121.52,166.76,238.18,289.27,406.32,543.22,258.02,83.43,25.4,16.76,83.43,62.0,39.68,14.28,32.14,32.14,35.81,9.92,89.28,39.68,101.58,101.58,89.28,121.52,114.68,128.56,121.52,135.81,121.52,128.56,121.52,108.03,108.03,121.52,121.52,150.88,114.68,108.03,114.68,101.58,101.58
248.0,158.72,150.88,158.72,228.56,219.13,278.65,278.65,311.09,311.09,345.32,192.05,248.0,248.0,219.13,150.88,300.08,381.33,322.3,345.32,357.12,357.12,406.32,311.09,268.24,300.08,369.12,300.08,289.27,278.65,258.02,228.56,289.27,289.27,289.27,289.27,166.76,83.43,89.28,150.88,150.88,135.81,128.56,89.28,95.33,67.06,62.0,48.01,6.35,0.0,99999.0,99999.0,99999.0,99999.0,99999.0,99999.0,99999.0,99999.0,99999.0,99999.0,99999.0,99999.0,99999.0,99999.0,99999.0,99999.0,99999.0,14.28,4.86,8.04,99999.0,99999.0,99999.0,99999.0,99999.0,99999.0,99999.0,99999.0,99999.0,99999.0,99999.0,99999.0,99999.0,99999.0,99999.0,99999.0,99999.0,99999.0,99999.0,99999.0,99999.0,99999.0,57.14,99999.0,99999.0,209.91,393.73,558.0,667.02,603.53,99999.0,99999.0,99999.0,166.76,99999.0,99999.0,99999.0,99999.0,99999.0,99999.0,99999.0,99999.0,99999.0,99999.0,99999.0,99999.0,99999.0,99999.0,99999.0,99999.0,99999.0,99999.0,99999.0,99999.0,99999.0,99999.0,99999.0,99999.0,99999.0,99999.0,99999.0,99999.0,99999.0,67.06,381.33,1114.61,1650.79,1972.2,1972.2,2114.55,2352.63,2445.19,2445.19,2507.88,2414.14,2114.55,1807.92,1476.5,528.64,268.24,99999.0,99999.0,99999.0,99999.0,99999.0,99999.0,99999.0,99999.0,99999.0,99999.0,99999.0,99999.0,99999.0,99999.0,99999.0,99999.0,99999.0,99999.0,99999.0,99999.0,99999.0,99999.0,99999.0,99999.0,99999.0,99999.0,99999.0,99999.0,99999.0,99999.0,99999.0,99999.0,99999.0,99999.0,99999.0,99999.0,99999.0,99999.0,99999.0,99999.0,99999.0,99999.0,99999.0,99999.0,99999.0,99999.0,99999.0,99999.0,99999.0,99999.0,99999.0,99999.0,99999.0,99999.0,99999.0,99999.0,99999.0,99999.0,99999.0,99999.0,99999.0,99999.0,99999.0,99999.0,99999.0,99999.0,99999.0,99999.0,99999.0,99999.0,99999.0,99999.0,99999.0,99999.0,99999.0,99999.0,99999.0,99999.0,99999.0,99999.0,99999.0,99999.0,99999.0,99999.0,99999.0,99999.0,99999.0,99999.0,99999.0,99999.0,99999.0,99999.0,99999.0,99999.0,99999.0,99999.0,0.89,62.0,101.58,258.02,650.85,785.76,1114.61,1011.94,876.53,1011.94,895.28,857.98,992.0,876.53,699.96,558.0,445.31,369.12,345.32,369.12,248.0,183.42,289.27,158.72,99999.0,99999.0,99999.0,99999.0,99999.0,99999.0,19.44,48.01,114.68,72.32,114.68,150.88,192.05,192.05,174.99,150.88,121.52,101.58,128.56,72.32,89.28,108.03,67.06,77.77,128.56,158.72,158.72,174.99,192.05,200.88,158.72,143.25,83.43,22.32,67.06,114.68,150.88,158.72,192.05,192.05,158.72,158.72,128.56,83.43,121.52,135.81,89.28,72.32,72.32,14.28,19.44,95.33,183.42,166.76,183.42,166.76,128.56,135.81,183.42,158.72,200.88,192.05,183.42,183.42,143.25,114.68,135.81,150.88,143.25,143.25,219.13,219.13,192.05,192.05,228.56,200.88,108.03,135.81,135.81,150.88,289.27,183.42,472.29,381.33,83.43,121.52,114.68,35.81,48.01,57.14,72.32,57.14,35.81,39.68,8.04,121.52,128.56,135.81,128.56,135.81,77.77,101.58,101.58,83.43,95.33,89.28,83.43,77.77,77.77,77.77,83.43,95.33,83.43,83.43,95.33,95.33,89.28,95.33
200.88,200.88,158.72,150.88,150.88,150.88,192.05,200.88,209.91,289.27,258.02,268.24,300.08,300.08,311.09,300.08,345.32,369.12,369.12,369.12,381.33,357.12,333.71,322.3,322.3,300.08,300.08,311.09,289.27,289.27,258.02,289.27,268.24,248.0,248.0,209.91,174.99,128.56,150.88,143.25,150.88,150.88,101.58,48.01,48.01,52.48,8.04,0.89,0.0,99999.0,99999.0,99999.0,99999.0,99999.0,99999.0,99999.0,99999.0,99999.0,99999.0,99999.0,99999.0,99999.0,99999.0,99999.0,99999.0,99999.0,99999.0,99999.0,99999.0,99999.0,99999.0,99999.0,99999.0,99999.0,89.28,0.0,99999.0,99999.0,150.88,289.27,333.71,311.09,150.88,311.09,0.0,135.81,311.09,289.27,99999.0,99999.0,99999.0,99999.0,99999.0,99999.0,99999.0,99999.0,99999.0,28.67,89.28,192.05,472.29,228.56,99999.0,99999.0,99999.0,99999.0,99999.0,99999.0,99999.0,99999.0,99999.0,99999.0,99999.0,99999.0,99999.0,99999.0,99999.0,99999.0,99999.0,99999.0,99999.0,99999.0,99999.0,99999.0,99999.0,99999.0,99999.0,99999.0,99999.0,99999.0,99999.0,99999.0,99999.0,99999.0,3.57,174.99,992.0,1289.21,1428.48,1676.48,2057.02,2291.92,2352.63,2383.28,2322.18,2114.55,1972.2,1834.81,952.72,67.06,99999.0,99999.0,99999.0,99999.0,99999.0,99999.0,99999.0,99999.0,99999.0,99999.0,99999.0,99999.0,99999.0,99999.0,99999.0,99999.0,99999.0,99999.0,99999.0,99999.0,99999.0,99999.0,99999.0,99999.0,99999.0,99999.0,99999.0,99999.0,99999.0,99999.0,99999.0,99999.0,99999.0,99999.0,99999.0,99999.0,99999.0,99999.0,99999.0,99999.0,99999.0,99999.0,99999.0,99999.0,99999.0,99999.0,99999.0,99999.0,99999.0,99999.0,99999.0,99999.0,99999.0,99999.0,99999.0,99999.0,99999.0,99999.0,99999.0,99999.0,99999.0,99999.0,99999.0,99999.0,99999.0,99999.0,99999.0,99999.0,99999.0,99999.0,89.28,99999.0,99999.0,99999.0,99999.0,99999.0,99999.0,99999.0,99999.0,99999.0,99999.0,99999.0,99999.0,99999.0,99999.0,99999.0,99999.0,99999.0,99999.0,99999.0,99999.0,99999.0,99999.0,99999.0,99999.0,238.18,500.07,952.72,619.11,1381.26,750.85,1114.61,1428.48,1011.94,972.26,650.85,1093.68,785.76,933.37,785.76,699.96,486.08,528.64,472.29,300.08,357.12,419.12,278.65,67.06,0.0,99999.0,99999.0,99999.0,99999.0,99999.0,99999.0,99999.0,62.0,158.72,150.88,150.88,121.52,158.72,121.52,114.68,108.03,101.58,166.76,121.52,83.43,72.32,95.33,101.58,83.43,101.58,121.52,183.42,192.05,135.81,128.56,150.88,89.28,67.06,28.67,43.75,22.32,128.56,128.56,135.81,114.68,121.52,183.42,143.25,77.77,72.32,121.52,200.88,200.88,95.33,52.48,48.01,48.01,52.48,62.0,108.03,192.05,183.42,166.76,192.05,166.76,192.05,150.88,135.81,135.81,89.28,143.25,166.76,143.25,128.56,114.68,183.42,150.88,128.56,158.72,183.42,158.72,150.88,128.56,158.72,258.02,311.09,381.33,406.32,289.27,121.52,52.48,77.77,43.75,77.77,143.25,128.56,135.81,67.06,143.25,101.58,52.48,16.76,43.75,89.28,62.0,57.14,62.0,77.77,72.32,62.0,67.06,72.32,62.0,57.14,57.14,52.48,62.0,52.48,77.77,67.06,57.14,72.32,72.32
183.42,219.13,174.99,150.88,158.72,150.88,150.88,150.88,192.05,192.05,268.24,300.08,322.3,345.32,345.32,345.32,369.12,543.22,381.33,369.12,432.12,393.73,406.32,357.12,357.12,419.12,406.32,300.08,345.32,311.09,333.71,300.08,300.08,311.09,311.09,300.08,278.65,200.88,183.42,158.72,158.72,83.43,108.03,52.48,32.14,19.44,0.89,99999.0,99999.0,99999.0,99999.0,99999.0,99999.0,99999.0,99999.0,99999.0,99999.0,99999.0,99999.0,99999.0,99999.0,99999.0,99999.0,99999.0,99999.0,99999.0,99999.0,99999.0,99999.0,99999.0,99999.0,99999.0,99999.0,99999.0,0.89,99999.0,99999.0,99999.0,0.89,43.75,135.81,219.13,300.08,300.08,322.3,300.08,393.73,603.53,357.12,200.88,3.57,99999.0,99999.0,99999.0,99999.0,99999.0,99999.0,99999.0,99999.0,99999.0,99999.0,99999.0,99999.0,8.04,99999.0,99999.0,99999.0,99999.0,99999.0,99999.0,99999.0,99999.0,99999.0,99999.0,99999.0,99999.0,99999.0,99999.0,99999.0,99999.0,99999.0,99999.0,99999.0,99999.0,99999.0,99999.0,99999.0,99999.0,99999.0,99999.0,99999.0,99999.0,99999.0,99999.0,99999.0,48.01,895.28,895.28,1500.8,1381.26,1476.5,1861.89,2000.27,1861.89,2414.14,2261.86,2261.86,1428.48,381.33,43.75,99999.0,99999.0,99999.0,99999.0,99999.0,99999.0,99999.0,99999.0,99999.0,99999.0,99999.0,99999.0,99999.0,99999.0,99999.0,99999.0,99999.0,99999.0,99999.0,99999.0,99999.0,99999.0,99999.0,99999.0,99999.0,99999.0,99999.0,99999.0,99999.0,99999.0,99999.0,99999.0,99999.0,99999.0,99999.0,99999.0,99999.0,99999.0,99999.0,99999.0,99999.0,99999.0,99999.0,99999.0,99999.0,99999.0,99999.0,99999.0,99999.0,99999.0,99999.0,99999.0,99999.0,99999.0,99999.0,99999.0,99999.0,99999.0,99999.0,99999.0,99999.0,99999.0,99999.0,99999.0,99999.0,99999.0,99999.0,99999.0,99999.0,99999.0,99999.0,99999.0,99999.0,99999.0,99999.0,99999.0,99999.0,99999.0,99999.0,99999.0,99999.0,99999.0,99999.0,99999.0,99999.0,99999.0,99999.0,99999.0,99999.0,99999.0,99999.0,99999.0,99999.0,99999.0,333.71,821.48,650.85,1178.6,1357.95,1452.39,1266.69,1525.3,895.28,895.28,1072.95,667.02,528.64,716.72,803.52,634.88,486.08,634.88,500.07,472.29,345.32,238.18,174.99,128.56,9.92,99999.0,99999.0,99999.0,99999.0,99999.0,99999.0,99999.0,99999.0,28.67,72.32,121.52,89.28,101.58,174.99,121.52,101.58,114.68,101.58,95.33,114.68,101.58,89.28,83.43,72.32,77.77,83.43,32.14,52.48,72.32,95.33,101.58,67.06,121.52,158.72,22.32,22.32,22.32,48.01,72.32,135.81,135.81,183.42,143.25,101.58,143.25,238.18,108.03,114.68,200.88,67.06,77.77,200.88,158.72,166.76,150.88,83.43,72.32,62.0,108.03,174.99,166.76,95.33,128.56,135.81,114.68,135.81,121.52,101.58,101.58,150.88,174.99,158.72,135.81,158.72,143.25,158.72,158.72,174.99,166.76,150.88,200.88,258.02,369.12,634.88,345.32,219.13,121.52,89.28,48.01,158.72,158.72,135.81,95.33,128.56,114.68,114.68,135.81,89.28,35.81,19.44,72.32,108.03,32.14,48.01,43.75,95.33,67.06,72.32,62.0,57.14,67.06,67.06,72.32,48.01,48.01,52.48,52.48,57.14,67.06
150.88,150.88,150.88,150.88,150.88,150.88,150.88,192.05,219.13,238.18,258.02,300.08,357.12,357.12,357.12,419.12,458.7,432.12,458.7,432.12,445.31,432.12,381.33,369.12,369.12,419.12,333.71,357.12,345.32,333.71,300.08,311.09,300.08,300.08,289.27,289.27,278.65,228.56,183.42,183.42,174.99,158.72,121.52,77.77,35.81,0.89,99999.0,99999.0,99999.0,99999.0,99999.0,99999.0,99999.0,99999.0,99999.0,99999.0,99999.0,99999.0,99999.0,99999.0,99999.0,99999.0,99999.0,99999.0,99999.0,99999.0,99999.0,99999.0,99999.0,99999.0,99999.0,99999.0,99999.0,99999.0,99999.0,99999.0,99999.0,99999.0,0.0,143.25,174.99,166.76,200.88,278.65,300.08,369.12,458.7,500.07,445.31,311.09,289.27,99999.0,99999.0,99999.0,99999.0,99999.0,99999.0,99999.0,99999.0,99999.0,99999.0,99999.0,99999.0,99999.0,99999.0,99999.0,99999.0,99999.0,99999.0,99999.0,99999.0,99999.0,99999.0,99999.0,99999.0,99999.0,99999.0,99999.0,99999.0,99999.0,99999.0,99999.0,99999.0,99999.0,99999.0,99999.0,99999.0,99999.0,99999.0,99999.0,99999.0,99999.0,99999.0,99999.0,99999.0,99999.0,0.0,39.68,528.64,803.52,876.53,543.22,750.85,486.08,1500.8,2114.55,1334.84,699.96,158.72,99999.0,99999.0,99999.0,99999.0,99999.0,99999.0,99999.0,99999.0,99999.0,99999.0,99999.0,99999.0,99999.0,99999.0,99999.0,99999.0,99999.0,99999.0,99999.0,99999.0,99999.0,99999.0,99999.0,99999.0,99999.0,99999.0,99999.0,99999.0,99999.0,99999.0,99999.0,99999.0,99999.0,99999.0,99999.0,99999.0,99999.0,99999.0,99999.0,99999.0,99999.0,99999.0,99999.0,99999.0,99999.0,99999.0,99999.0,99999.0,99999.0,99999.0,99999.0,99999.0,99999.0,99999.0,99999.0,99999.0,99999.0,99999.0,99999.0,99999.0,99999.0,99999.0,99999.0,99999.0,99999.0,99999.0,99999.0,99999.0,99999.0,99999.0,99999.0,99999.0,99999.0,99999.0,99999.0,99999.0,99999.0,99999.0,99999.0,99999.0,99999.0,99999.0,99999.0,99999.0,99999.0,99999.0,99999.0,99999.0,99999.0,99999.0,99999.0,99999.0,99999.0,99999.0,99999.0,219.13,603.53,876.53,876.53,699.96,803.52,1135.74,1114.61,992.0,895.28,472.29,857.98,500.07,558.0,543.22,514.25,500.07,419.12,357.12,300.08,357.12,258.02,183.42,57.14,0.0,99999.0,99999.0,99999.0,99999.0,99999.0,99999.0,99999.0,99999.0,32.14,52.48,62.0,108.03,83.43,101.58,121.52,158.72,95.33,95.33,89.28,72.32,83.43,67.06,72.32,83.43,25.4,0.0,0.89,0.89,0.89,32.14,35.81,89.28,114.68,135.81,48.01,62.0,22.32,22.32,95.33,200.88,200.88,150.88,108.03,158.72,183.42,114.68,183.42,174.99,143.25,95.33,95.33,143.25,114.68,183.42,95.33,135.81,219.13,166.76,77.77,114.68,101.58,166.76,158.72,158.72,166.76,114.68,128.56,150.88,166.76,166.76,200.88,200.88,128.56,114.68,128.56,174.99,209.91,209.91,143.25,166.76,311.09,228.56,311.09,803.52,369.12,228.56,174.99,121.52,121.52,121.52,108.03,77.77,83.43,108.03,114.68,95.33,95.33,95.33,52.48,39.68,32.14,32.14,83.43,28.67,25.4,25.4,32.14,32.14,32.14,35.81,32.14,25.4,28.67,35.81,32.14,35.81,35.81,48.01,43.75
238.18,183.42,158.72,166.76,238.18,248.0,219.13,200.88,209.91,200.88,209.91,289.27,300.08,311.09,369.12,406.32,432.12,445.31,445.31,458.7,458.7,445.31,406.32,445.31,369.12,357.12,357.12,357.12,357.12,333.71,311.09,311.09,333.71,311.09,333.71,278.65,268.24,248.0,200.88,166.76,150.88,121.52,83.43,48.01,19.44,99999.0,99999.0,99999.0,99999.0,99999.0,99999.0,99999.0,99999.0,99999.0,99999.0,99999.0,99999.0,99999.0,99999.0,99999.0,99999.0,99999.0,99999.0,99999.0,99999.0,99999.0,99999.0,99999.0,99999.0,99999.0,99999.0,99999.0,99999.0,99999.0,99999.0,99999.0,99999.0,99999.0,0.0,16.76,95.33,150.88,158.72,209.91,268.24,300.08,300.08,322.3,311.09,322.3,311.09,333.71,311.09,278.65,135.81,99999.0,99999.0,99999.0,99999.0,99999.0,99999.0,99999.0,99999.0,99999.0,99999.0,99999.0,99999.0,99999.0,99999.0,99999.0,99999.0,99999.0,99999.0,99999.0,99999.0,99999.0,99999.0,99999.0,99999.0,99999.0,99999.0,99999.0,99999.0,99999.0,99999.0,99999.0,99999.0,99999.0,99999.0,99999.0,99999.0,99999.0,99999.0,99999.0,99999.0,99999.0,99999.0,99999.0,0.0,99999.0,0.0,0.0,101.58,432.12,472.29,857.98,192.05,3.57,8.04,99999.0,99999.0,99999.0,99999.0,99999.0,99999.0,99999.0,99999.0,99999.0,99999.0,99999.0,99999.0,99999.0,99999.0,99999.0,99999.0,99999.0,99999.0,99999.0,99999.0,99999.0,99999.0,99999.0,99999.0,99999.0,99999.0,99999.0,99999.0,99999.0,99999.0,99999.0,99999.0,99999.0,99999.0,99999.0,99999.0,99999.0,99999.0,99999.0,99999.0,99999.0,99999.0,99999.0,99999.0,99999.0,99999.0,99999.0,99999.0,99999.0,99999.0,99999.0,99999.0,99999.0,99999.0,99999.0,99999.0,99999.0,99999.0,99999.0,99999.0,99999.0,99999.0,99999.0,99999.0,99999.0,99999.0,99999.0,99999.0,99999.0,99999.0,99999.0,99999.0,99999.0,99999.0,99999.0,99999.0,99999.0,99999.0,99999.0,99999.0,99999.0,99999.0,99999.0,99999.0,99999.0,99999.0,99999.0,99999.0,99999.0,99999.0,99999.0,99999.0,99999.0,99999.0,99999.0,43.75,311.09,992.0,895.28,1244.37,1357.95,1289.21,803.52,1032.08,528.64,311.09,289.27,183.42,268.24,311.09,357.12,472.29,369.12,333.71,248.0,278.65,183.42,248.0,89.28,12.0,99999.0,99999.0,99999.0,99999.0,99999.0,99999.0,99999.0,0.0,14.28,62.0,72.32,89.28,114.68,114.68,101.58,89.28,67.06,48.01,35.81,52.48,43.75,35.81,3.57,35.81,19.44,28.67,0.89,0.89,0.89,0.89,0.89,22.32,48.01,108.03,114.68,183.42,95.33,200.88,143.25,166.76,183.42,150.88,128.56,128.56,174.99,174.99,183.42,209.91,150.88,150.88,128.56,114.68,121.52,143.25,150.88,135.81,135.81,101.58,158.72,143.25,108.03,174.99,158.72,158.72,192.05,135.81,166.76,158.72,209.91,209.91,192.05,183.42,209.91,209.91,192.05,166.76,166.76,192.05,174.99,268.24,278.65,381.33,278.65,486.08,393.73,174.99,114.68,128.56,95.33,57.14,89.28,67.06,67.06,72.32,67.06,62.0,67.06,62.0,72.32,67.06,48.01,35.81,28.67,32.14,28.67,67.06,62.0,39.68,62.0,52.48,43.75,57.14,32.14,52.48,77.77,52.48,35.81,57.14,25.4
300.08,289.27,258.02,258.02,268.24,289.27,268.24,209.91,174.99,174.99,200.88,228.56,289.27,322.3,345.32,445.31,486.08,432.12,472.29,500.07,514.25,458.7,458.7,458.7,406.32,432.12,500.07,369.12,345.32,333.71,381.33,393.73,333.71,311.09,289.27,278.65,289.27,289.27,238.18,192.05,209.91,143.25,101.58,67.06,3.57,99999.0,99999.0,99999.0,99999.0,99999.0,99999.0,99999.0,99999.0,99999.0,99999.0,99999.0,99999.0,99999.0,99999.0,99999.0,99999.0,99999.0,99999.0,99999.0,99999.0,99999.0,99999.0,99999.0,99999.0,99999.0,99999.0,99999.0,99999.0,99999.0,99999.0,99999.0,99999.0,99999.0,99999.0,28.67,67.06,128.56,158.72,150.88,228.56,238.18,238.18,258.02,238.18,258.02,219.13,228.56,200.88,219.13,57.14,99999.0,99999.0,128.56,99999.0,99999.0,99999.0,99999.0,99999.0,99999.0,62.0,0.0,99999.0,99999.0,99999.0,99999.0,99999.0,99999.0,99999.0,99999.0,99999.0,99999.0,99999.0,99999.0,99999.0,99999.0,99999.0,99999.0,99999.0,99999.0,99999.0,99999.0,99999.0,99999.0,99999.0,99999.0,99999.0,99999.0,99999.0,99999.0,99999.0,99999.0,99999.0,99999.0,99999.0,99999.0,99999.0,99999.0,99999.0,150.88,83.43,278.65,914.23,200.88,99999.0,99999.0,99999.0,99999.0,99999.0,99999.0,99999.0,99999.0,99999.0,99999.0,99999.0,99999.0,99999.0,99999.0,99999.0,99999.0,99999.0,99999.0,99999.0,99999.0,99999.0,99999.0,99999.0,99999.0,99999.0,99999.0,99999.0,99999.0,99999.0,99999.0,99999.0,99999.0,99999.0,99999.0,99999.0,99999.0,99999.0,99999.0,99999.0,99999.0,99999.0,99999.0,99999.0,99999.0,99999.0,99999.0,99999.0,99999.0,99999.0,99999.0,99999.0,99999.0,99999.0,99999.0,99999.0,99999.0,99999.0,99999.0,99999.0,99999.0,99999.0,99999.0,99999.0,99999.0,99999.0,99999.0,99999.0,99999.0,99999.0,99999.0,99999.0,99999.0,99999.0,99999.0,99999.0,99999.0,99999.0,99999.0,99999.0,99999.0,99999.0,99999.0,99999.0,52.48,99999.0,99999.0,99999.0,99999.0,99999.0,99999.0,99999.0,99999.0,99999.0,99999.0,99999.0,99999.0,4.86,248.0,603.53,1334.84,1334.84,1222.25,1244.37,952.72,821.48,419.12,248.0,458.7,238.18,192.05,345.32,289.27,258.02,311.09,393.73,278.65,258.02,228.56,121.52,67.06,62.0,43.75,19.44,0.89,99999.0,14.28,19.44,2.48,0.89,0.89,16.76,22.32,32.14,57.14,72.32,35.81,4.86,2.48,99999.0,99999.0,99999.0,99999.0,99999.0,99999.0,72.32,57.14,95.33,35.81,4.86,8.04,4.86,25.4,35.81,89.28,128.56,228.56,228.56,228.56,166.76,150.88,114.68,108.03,150.88,135.81,150.88,158.72,174.99,174.99,174.99,158.72,166.76,174.99,166.76,143.25,174.99,183.42,183.42,174.99,174.99,143.25,150.88,150.88,158.72,158.72,150.88,143.25,209.91,183.42,150.88,166.76,192.05,183.42,166.76,192.05,183.42,143.25,128.56,143.25,143.25,150.88,192.05,300.08,528.64,785.76,514.25,393.73,228.56,121.52,72.32,83.43,101.58,95.33,83.43,72.32,62.0,48.01,52.48,52.48,62.0,67.06,72.32,57.14,35.81,32.14,32.14,28.67,89.28,72.32,48.01,72.32,77.77,67.06,48.01,57.14,67.06,57.14,83.43,83.43,83.43,83.43
311.09,345.32,381.33,500.07,406.32,322.3,311.09,278.65,258.02,268.24,219.13,238.18,289.27,322.3,369.12,369.12,369.12,419.12,419.12,419.12,432.12,458.7,458.7,472.29,432.12,393.73,419.12,432.12,419.12,393.73,419.12,345.32,345.32,300.08,311.09,300.08,300.08,311.09,268.24,258.02,200.88,174.99,114.68,72.32,99999.0,99999.0,99999.0,99999.0,99999.0,99999.0,99999.0,99999.0,99999.0,99999.0,99999.0,99999.0,99999.0,99999.0,99999.0,99999.0,99999.0,99999.0,99999.0,99999.0,99999.0,99999.0,99999.0,99999.0,99999.0,99999.0,99999.0,99999.0,99999.0,19.44,99999.0,99999.0,99999.0,99999.0,0.89,32.14,101.58,121.52,150.88,143.25,150.88,174.99,200.88,228.56,192.05,248.0,192.05,209.91,174.99,135.81,62.0,99999.0,99999.0,99999.0,99999.0,99999.0,99999.0,99999.0,99999.0,143.25,209.91,174.99,99999.0,99999.0,99999.0,99999.0,99999.0,99999.0,99999.0,99999.0,99999.0,99999.0,99999.0,99999.0,99999.0,99999.0,99999.0,99999.0,99999.0,99999.0,99999.0,99999.0,99999.0,99999.0,99999.0,99999.0,99999.0,99999.0,99999.0,99999.0,99999.0,99999.0,99999.0,99999.0,99999.0,99999.0,99999.0,99999.0,99999.0,99999.0,99999.0,99999.0,99999.0,99999.0,99999.0,99999.0,99999.0,99999.0,99999.0,99999.0,99999.0,99999.0,99999.0,99999.0,99999.0,99999.0,99999.0,99999.0,99999.0,99999.0,99999.0,99999.0,99999.0,99999.0,99999.0,99999.0,99999.0,99999.0,99999.0,99999.0,99999.0,99999.0,99999.0,99999.0,99999.0,99999.0,99999.0,99999.0,99999.0,99999.0,99999.0,99999.0,99999.0,99999.0,99999.0,99999.0,99999.0,99999.0,99999.0,99999.0,99999.0,99999.0,99999.0,99999.0,99999.0,99999.0,99999.0,99999.0,99999.0,99999.0,99999.0,99999.0,99999.0,99999.0,99999.0,99999.0,99999.0,99999.0,99999.0,99999.0,99999.0,99999.0,99999.0,99999.0,99999.0,99999.0,99999.0,99999.0,99999.0,99999.0,99999.0,99999.0,99999.0,99999.0,99999.0,99999.0,99999.0,99999.0,99999.0,99999.0,99999.0,99999.0,99999.0,99999.0,99999.0,99999.0,99999.0,99999.0,99999.0,99999.0,32.14,22.32,803.52,876.53,1157.07,972.26,1011.94,803.52,458.7,289.27,83.43,83.43,121.52,238.18,183.42,238.18,108.03,219.13,228.56,200.88,200.88,108.03,83.43,48.01,35.81,35.81,35.81,19.44,0.0,99999.0,99999.0,99999.0,99999.0,99999.0,99999.0,99999.0,99999.0,99999.0,99999.0,99999.0,99999.0,99999.0,99999.0,99999.0,99999.0,99999.0,2.48,32.14,114.68,108.03,72.32,22.32,52.48,57.14,32.14,48.01,52.48,72.32,166.76,200.88,183.42,192.05,143.25,143.25,228.56,150.88,135.81,121.52,114.68,128.56,158.72,183.42,200.88,192.05,135.81,135.81,166.76,166.76,192.05,219.13,150.88,174.99,209.91,192.05,192.05,174.99,183.42,183.42,192.05,192.05,209.91,166.76,174.99,183.42,166.76,158.72,192.05,238.18,209.91,166.76,183.42,158.72,150.88,150.88,174.99,278.65,419.12,458.7,558.0,238.18,200.88,101.58,101.58,89.28,83.43,72.32,67.06,83.43,67.06,62.0,52.48,43.75,35.81,43.75,32.14,35.81,35.81,32.14,35.81,48.01,62.0,62.0,72.32,72.32,83.43,83.43,57.14,83.43,83.43,89.28,89.28,83.43,89.28,108.03
445.31,768.21,914.23,876.53,785.76,768.21,300.08,278.65,248.0,258.02,238.18,228.56,289.27,278.65,200.88,200.88,200.88,200.88,228.56,238.18,248.0,268.24,238.18,268.24,345.32,369.12,406.32,419.12,445.31,419.12,393.73,406.32,381.33,333.71,311.09,300.08,268.24,300.08,258.02,238.18,219.13,174.99,114.68,67.06,99999.0,99999.0,99999.0,99999.0,99999.0,99999.0,99999.0,99999.0,99999.0,99999.0,99999.0,99999.0,99999.0,99999.0,99999.0,99999.0,99999.0,99999.0,99999.0,99999.0,99999.0,99999.0,99999.0,99999.0,99999.0,99999.0,99999.0,99999.0,99999.0,99999.0,99999.0,99999.0,99999.0,99999.0,19.44,67.06,108.03,114.68,114.68,128.56,135.81,219.13,174.99,158.72,166.76,228.56,238.18,238.18,248.0,166.76,67.06,8.04,99999.0,99999.0,99999.0,99999.0,99999.0,99999.0,0.0,192.05,528.64,619.11,209.91,99999.0,99999.0,99999.0,99999.0,99999.0,99999.0,99999.0,99999.0,99999.0,99999.0,99999.0,99999.0,99999.0,99999.0,99999.0,99999.0,99999.0,99999.0,99999.0,99999.0,99999.0,99999.0,99999.0,99999.0,99999.0,99999.0,99999.0,99999.0,99999.0,99999.0,99999.0,99999.0,99999.0,99999.0,99999.0,99999.0,99999.0,99999.0,99999.0,99999.0,99999.0,99999.0,99999.0,99999.0,99999.0,99999.0,99999.0,99999.0,99999.0,99999.0,99999.0,99999.0,99999.0,99999.0,99999.0,99999.0,99999.0,99999.0,99999.0,99999.0,99999.0,99999.0,99999.0,99999.0,99999.0,99999.0,99999.0,99999.0,99999.0,99999.0,99999.0,99999.0,99999.0,99999.0,99999.0,99999.0,99999.0,99999.0,99999.0,99999.0,99999.0,99999.0,99999.0,99999.0,99999.0,99999.0,99999.0,99999.0,99999.0,99999.0,99999.0,99999.0,99999.0,99999.0,99999.0,99999.0,99999.0,99999.0,99999.0,99999.0,99999.0,99999.0,99999.0,99999.0,99999.0,99999.0,99999.0,99999.0,99999.0,99999.0,99999.0,99999.0,99999.0,99999.0,99999.0,99999.0,99999.0,99999.0,99999.0,99999.0,99999.0,6.35,99999.0,99999.0,99999.0,99999.0,99999.0,99999.0,99999.0,99999.0,99999.0,99999.0,99999.0,99999.0,99999.0,99999.0,99999.0,43.75,99999.0,333.71,1011.94,1135.74,821.48,803.52,432.12,174.99,228.56,83.43,8.04,72.32,150.88,128.56,89.28,43.75,43.75,121.52,192.05,43.75,22.32,48.01,57.14,39.68,32.14,43.75,0.89,99999.0,99999.0,99999.0,99999.0,99999.0,99999.0,99999.0,99999.0,99999.0,9.92,25.4,57.14,67.06,89.28,121.52,77.77,62.0,32.14,32.14,39.68,83.43,108.03,83.43,62.0,52.48,39.68,43.75,67.06,89.28,192.05,174.99,150.88,143.25,128.56,121.52,114.68,108.03,128.56,128.56,174.99,183.42,128.56,114.68,183.42,158.72,143.25,166.76,192.05,166.76,135.81,166.76,166.76,192.05,209.91,200.88,143.25,192.05,183.42,166.76,200.88,183.42,158.72,209.91,150.88,143.25,192.05,174.99,209.91,289.27,268.24,219.13,174.99,192.05,192.05,121.52,135.81,183.42,357.12,543.22,572.98,432.12,248.0,128.56,135.81,101.58,95.33,67.06,108.03,95.33,77.77,72.32,72.32,77.77,83.43,52.48,43.75,43.75,43.75,43.75,35.81,89.28,89.28,83.43,77.77,62.0,89.28,95.33,89.28,95.33,72.32,77.77,77.77,72.32,95.33,95.33,83.43
406.32,458.7,572.98,821.48,667.02,300.08,238.18,238.18,238.18,200.88,209.91,209.91,200.88,238.18,278.65,311.09,345.32,369.12,432.12,445.31,419.12,406.32,289.27,369.12,381.33,393.73,393.73,406.32,406.32,393.73,369.12,381.33,357.12,369.12,333.71,258.02,278.65,258.02,238.18,289.27,219.13,166.76,114.68,72.32,19.44,6.35,9.92,2.48,99999.0,99999.0,99999.0,99999.0,99999.0,99999.0,99999.0,99999.0,99999.0,99999.0,99999.0,99999.0,99999.0,99999.0,99999.0,99999.0,99999.0,99999.0,99999.0,99999.0,99999.0,99999.0,99999.0,99999.0,99999.0,99999.0,99999.0,99999.0,99999.0,43.75,67.06,77.77,128.56,150.88,158.72,158.72,174.99,192.05,228.56,219.13,228.56,209.91,192.05,228.56,183.42,135.81,99999.0,143.25,77.77,99999.0,99999.0,99999.0,99999.0,72.32,143.25,345.32,514.25,768.21,572.98,432.12,99999.0,99999.0,99999.0,99999.0,99999.0,99999.0,99999.0,99999.0,99999.0,99999.0,99999.0,99999.0,99999.0,99999.0,99999.0,99999.0,99999.0,99999.0,99999.0,99999.0,99999.0,99999.0,99999.0,99999.0,99999.0,99999.0,99999.0,99999.0,99999.0,99999.0,99999.0,99999.0,99999.0,99999.0,99999.0,99999.0,99999.0,99999.0,99999.0,99999.0,99999.0,99999.0,99999.0,99999.0,99999.0,99999.0,99999.0,99999.0,99999.0,99999.0,99999.0,99999.0,99999.0,99999.0,99999.0,99999.0,99999.0,99999.0,99999.0,99999.0,99999.0,99999.0,99999.0,99999.0,99999.0,99999.0,99999.0,99999.0,99999.0,99999.0,99999.0,99999.0,99999.0,99999.0,99999.0,99999.0,99999.0,99999.0,99999.0,99999.0,99999.0,99999.0,99999.0,99999.0,99999.0,99999.0,99999.0,99999.0,99999.0,99999.0,99999.0,99999.0,99999.0,99999.0,99999.0,99999.0,99999.0,99999.0,99999.0,99999.0,99999.0,99999.0,99999.0,99999.0,99999.0,99999.0,99999.0,99999.0,99999.0,99999.0,99999.0,99999.0,99999.0,99999.0,99999.0,99999.0,99999.0,99999.0,99999.0,99999.0,99999.0,99999.0,99999.0,99999.0,99999.0,99999.0,99999.0,99999.0,99999.0,99999.0,99999.0,99999.0,99999.0,99999.0,99999.0,99999.0,99999.0,89.28,458.7,528.64,839.63,514.25,311.09,258.02,32.14,99999.0,99999.0,99999.0,14.28,150.88,174.99,43.75,43.75,48.01,121.52,135.81,128.56,67.06,95.33,48.01,12.0,99999.0,99999.0,99999.0,99999.0,99999.0,99999.0,99999.0,99999.0,99999.0,99999.0,99999.0,99999.0,4.86,14.28,48.01,52.48,67.06,77.77,72.32,28.67,28.67,67.06,83.43,57.14,89.28,62.0,57.14,48.01,43.75,62.0,95.33,101.58,192.05,174.99,158.72,192.05,121.52,135.81,135.81,101.58,108.03,95.33,174.99,135.81,150.88,183.42,174.99,150.88,166.76,192.05,174.99,174.99,200.88,183.42,174.99,166.76,135.81,143.25,128.56,166.76,166.76,158.72,166.76,114.68,135.81,121.52,150.88,183.42,219.13,209.91,268.24,219.13,268.24,219.13,183.42,183.42,174.99,101.58,158.72,219.13,322.3,345.32,472.29,369.12,200.88,166.76,143.25,114.68,114.68,95.33,101.58,121.52,89.28,72.32,77.77,83.43,83.43,77.77,57.14,43.75,43.75,43.75,62.0,77.77,83.43,89.28,89.28,89.28,89.28,77.77,77.77,77.77,83.43,89.28,108.03,114.68,101.58,83.43,101.58
333.71,300.08,268.24,268.24,289.27,268.24,238.18,268.24,300.08,258.02,209.91,248.0,278.65,311.09,345.32,432.12,458.7,486.08,472.29,514.25,500.07,369.12,381.33,458.7,458.7,472.29,445.31,393.73,419.12,419.12,357.12,357.12,406.32,393.73,345.32,345.32,311.09,268.24,345.32,278.65,258.02,238.18,158.72,128.56,83.43,48.01,48.01,22.32,99999.0,99999.0,99999.0,99999.0,99999.0,99999.0,99999.0,99999.0,99999.0,99999.0,99999.0,99999.0,99999.0,99999.0,99999.0,99999.0,99999.0,99999.0,99999.0,99999.0,99999.0,99999.0,99999.0,99999.0,99999.0,99999.0,99999.0,99999.0,99999.0,99999.0,99999.0,72.32,121.52,183.42,209.91,166.76,209.91,219.13,248.0,200.88,219.13,228.56,258.02,238.18,278.65,209.91,192.05,219.13,128.56,25.4,52.48,77.77,108.03,183.42,228.56,419.12,667.02,716.72,558.0,445.31,166.76,99999.0,99999.0,99999.0,99999.0,99999.0,99999.0,99999.0,99999.0,99999.0,99999.0,99999.0,99999.0,99999.0,99999.0,99999.0,99999.0,99999.0,99999.0,99999.0,99999.0,99999.0,99999.0,99999.0,99999.0,99999.0,99999.0,99999.0,99999.0,99999.0,99999.0,99999.0,99999.0,99999.0,99999.0,99999.0,99999.0,99999.0,99999.0,99999.0,99999.0,99999.0,99999.0,99999.0,99999.0,99999.0,99999.0,99999.0,99999.0,99999.0,99999.0,99999.0,99999.0,99999.0,99999.0,99999.0,99999.0,99999.0,99999.0,99999.0,99999.0,99999.0,99999.0,99999.0,99999.0,99999.0,99999.0,99999.0,99999.0,99999.0,99999.0,99999.0,99999.0,99999.0,99999.0,99999.0,99999.0,99999.0,99999.0,99999.0,99999.0,99999.0,99999.0,99999.0,99999.0,99999.0,99999.0,99999.0,99999.0,99999.0,99999.0,99999.0,99999.0,99999.0,99999.0,99999.0,99999.0,99999.0,99999.0,99999.0,99999.0,99999.0,99999.0,99999.0,99999.0,99999.0,99999.0,99999.0,99999.0,99999.0,99999.0,99999.0,28.67,8.04,99999.0,48.01,268.24,345.32,333.71,99999.0,99999.0,99999.0,99999.0,99999.0,99999.0,99999.0,99999.0,99999.0,99999.0,99999.0,99999.0,99999.0,99999.0,99999.0,99999.0,99999.0,99999.0,99999.0,99999.0,108.03,300.08,228.56,114.68,99999.0,99999.0,99999.0,99999.0,99999.0,99999.0,48.01,67.06,83.43,108.03,200.88,121.52,150.88,135.81,108.03,83.43,25.4,99999.0,99999.0,99999.0,99999.0,99999.0,99999.0,99999.0,99999.0,99999.0,99999.0,16.76,1.59,99999.0,99999.0,99999.0,19.44,52.48,83.43,57.14,67.06,39.68,32.14,89.28,143.25,108.03,72.32,48.01,25.4,14.28,28.67,72.32,101.58,174.99,174.99,143.25,143.25,183.42,135.81,158.72,166.76,209.91,166.76,101.58,95.33,128.56,128.56,135.81,108.03,108.03,166.76,174.99,174.99,135.81,128.56,150.88,114.68,135.81,108.03,108.03,128.56,135.81,121.52,135.81,128.56,143.25,150.88,192.05,183.42,143.25,166.76,143.25,183.42,258.02,278.65,209.91,150.88,200.88,219.13,183.42,128.56,192.05,150.88,248.0,369.12,472.29,248.0,238.18,174.99,174.99,114.68,108.03,95.33,72.32,95.33,108.03,83.43,57.14,62.0,57.14,57.14,48.01,43.75,48.01,95.33,89.28,89.28,89.28,89.28,89.28,95.33,95.33,101.58,101.58,114.68,114.68,114.68,114.68,95.33,77.77,108.03
393.73,716.72,750.85,369.12,393.73,419.12,588.16,650.85,667.02,716.72,419.12,278.65,300.08,369.12,486.08,543.22,514.25,528.64,528.64,528.64,472.29,486.08,543.22,572.98,486.08,458.7,406.32,406.32,357.12,333.71,333.71,369.12,369.12,369.12,311.09,333.71,300.08,289.27,300.08,278.65,278.65,219.13,200.88,192.05,166.76,83.43,57.14,39.68,6.35,99999.0,99999.0,99999.0,99999.0,99999.0,99999.0,99999.0,99999.0,99999.0,99999.0,99999.0,99999.0,99999.0,99999.0,99999.0,99999.0,99999.0,99999.0,99999.0,99999.0,99999.0,99999.0,99999.0,99999.0,99999.0,99999.0,99999.0,99999.0,99999.0,99999.0,99999.0,158.72,135.81,158.72,209.91,268.24,248.0,258.02,209.91,258.02,300.08,311.09,322.3,300.08,248.0,200.88,174.99,219.13,135.81,158.72,158.72,209.91,248.0,381.33,472.29,619.11,683.39,634.88,514.25,268.24,381.33,174.99,99999.0,99999.0,99999.0,99999.0,99999.0,99999.0,99999.0,99999.0,99999.0,99999.0,99999.0,99999.0,99999.0,99999.0,99999.0,99999.0,99999.0,99999.0,99999.0,99999.0,99999.0,99999.0,99999.0,99999.0,99999.0,99999.0,99999.0,99999.0,99999.0,99999.0,99999.0,99999.0,99999.0,99999.0,99999.0,99999.0,99999.0,99999.0,99999.0,99999.0,99999.0,99999.0,99999.0,99999.0,99999.0,99999.0,99999.0,99999.0,99999.0,99999.0,99999.0,99999.0,99999.0,99999.0,99999.0,99999.0,99999.0,99999.0,99999.0,99999.0,99999.0,99999.0,99999.0,99999.0,99999.0,99999.0,99999.0,99999.0,99999.0,99999.0,99999.0,99999.0,99999.0,99999.0,99999.0,99999.0,99999.0,99999.0,99999.0,99999.0,99999.0,99999.0,99999.0,99999.0,99999.0,99999.0,99999.0,99999.0,99999.0,99999.0,99999.0,99999.0,99999.0,99999.0,99999.0,99999.0,99999.0,99999.0,99999.0,99999.0,99999.0,99999.0,99999.0,99999.0,99999.0,99999.0,99999.0,99999.0,3.57,99999.0,4.86,67.06,419.12,369.12,174.99,99999.0,2.48,8.04,9.92,99999.0,99999.0,99999.0,99999.0,99999.0,99999.0,99999.0,99999.0,99999.0,99999.0,99999.0,99999.0,99999.0,99999.0,99999.0,99999.0,99999.0,99999.0,99999.0,99999.0,99999.0,99999.0,99999.0,99999.0,99999.0,99999.0,99999.0,3.57,83.43,192.05,238.18,300.08,200.88,278.65,278.65,158.72,95.33,1.59,99999.0,99999.0,99999.0,25.4,99999.0,99999.0,99999.0,99999.0,99999.0,99999.0,99999.0,99999.0,99999.0,99999.0,99999.0,57.14,43.75,57.14,67.06,89.28,174.99,108.03,48.01,52.48,57.14,72.32,83.43,89.28,62.0,39.68,57.14,192.05,219.13,192.05,166.76,166.76,158.72,143.25,143.25,135.81,166.76,135.81,121.52,121.52,128.56,108.03,89.28,108.03,135.81,166.76,121.52,128.56,101.58,89.28,135.81,158.72,108.03,95.33,121.52,150.88,128.56,108.03,114.68,95.33,183.42,174.99,95.33,143.25,183.42,209.91,192.05,209.91,200.88,200.88,209.91,209.91,135.81,209.91,228.56,192.05,183.42,209.91,369.12,300.08,333.71,322.3,289.27,228.56,192.05,166.76,128.56,89.28,72.32,83.43,67.06,83.43,95.33,83.43,48.01,43.75,39.68,48.01,52.48,52.48,48.01,52.48,57.14,52.48,72.32,89.28,101.58,101.58,101.58,89.28,121.52,121.52,114.68,128.56,95.33,121.52
445.31,572.98,803.52,458.7,514.25,667.02,733.68,768.21,572.98,514.25,300.08,333.71,572.98,472.29,514.25,472.29,472.29,486.08,500.07,500.07,500.07,528.64,514.25,500.07,486.08,432.12,419.12,357.12,345.32,333.71,357.12,381.33,369.12,311.09,322.3,278.65,258.02,258.02,268.24,258.02,248.0,209.91,209.91,200.88,209.91,143.25,83.43,62.0,25.4,99999.0,99999.0,0.4,1.59,99999.0,99999.0,99999.0,99999.0,99999.0,99999.0,99999.0,99999.0,99999.0,99999.0,99999.0,99999.0,99999.0,99999.0,99999.0,99999.0,99999.0,99999.0,99999.0,99999.0,99999.0,99999.0,99999.0,99999.0,0.4,99999.0,99999.0,4.86,192.05,200.88,200.88,183.42,278.65,311.09,345.32,357.12,333.71,166.76,258.02,158.72,322.3,238.18,166.76,258.02,228.56,258.02,150.88,289.27,345.32,381.33,333.71,528.64,572.98,558.0,514.25,369.12,183.42,99999.0,99999.0,99999.0,99999.0,99999.0,99999.0,99999.0,99999.0,99999.0,99999.0,99999.0,99999.0,99999.0,99999.0,99999.0,99999.0,99999.0,99999.0,99999.0,99999.0,99999.0,99999.0,99999.0,99999.0,99999.0,99999.0,99999.0,99999.0,99999.0,99999.0,99999.0,99999.0,99999.0,99999.0,99999.0,99999.0,99999.0,99999.0,99999.0,99999.0,99999.0,99999.0,99999.0,99999.0,99999.0,99999.0,99999.0,99999.0,99999.0,99999.0,99999.0,99999.0,99999.0,99999.0,99999.0,99999.0,99999.0,99999.0,99999.0,99999.0,99999.0,99999.0,99999.0,99999.0,99999.0,99999.0,99999.0,99999.0,99999.0,99999.0,99999.0,99999.0,99999.0,99999.0,99999.0,99999.0,99999.0,99999.0,99999.0,99999.0,99999.0,99999.0,99999.0,99999.0,99999.0,99999.0,99999.0,99999.0,99999.0,99999.0,99999.0,99999.0,99999.0,99999.0,99999.0,99999.0,99999.0,99999.0,99999.0,99999.0,99999.0,99999.0,99999.0,99999.0,99999.0,99999.0,99999.0,99999.0,99999.0,67.06,99999.0,322.3,209.91,558.0,458.7,650.85,238.18,558.0,238.18,89.28,99999.0,99999.0,99999.0,99999.0,99999.0,99999.0,99999.0,99999.0,99999.0,99999.0,99999.0,99999.0,99999.0,99999.0,99999.0,99999.0,99999.0,99999.0,99999.0,99999.0,99999.0,99999.0,99999.0,3.57,57.14,99999.0,99999.0,99999.0,22.32,143.25,158.72,183.42,200.88,228.56,278.65,158.72,62.0,99999.0,99999.0,99999.0,14.28,0.0,99999.0,99999.0,99999.0,99999.0,99999.0,16.76,35.81,83.43,99999.0,99999.0,99999.0,52.48,121.52,209.91,150.88,135.81,121.52,89.28,57.14,83.43,108.03,83.43,95.33,89.28,72.32,101.58,248.0,219.13,228.56,258.02,238.18,166.76,183.42,166.76,143.25,143.25,128.56,114.68,150.88,143.25,114.68,101.58,135.81,143.25,121.52,143.25,135.81,108.03,89.28,150.88,135.81,150.88,101.58,143.25,135.81,143.25,121.52,135.81,158.72,158.72,121.52,143.25,121.52,135.81,135.81,114.68,166.76,238.18,192.05,158.72,128.56,174.99,150.88,200.88,219.13,192.05,258.02,228.56,311.09,381.33,311.09,381.33,300.08,268.24,228.56,209.91,143.25,143.25,121.52,135.81,135.81,114.68,67.06,52.48,52.48,48.01,57.14,77.77,77.77,77.77,72.32,83.43,72.32,57.14,83.43,77.77,83.43,72.32,62.0,57.14,95.33,135.81,128.56,128.56,128.56,128.56
619.11,683.39,699.96,500.07,716.72,733.68,528.64,500.07,472.29,486.08,486.08,357.12,406.32,445.31,472.29,432.12,419.12,445.31,472.29,486.08,543.22,528.64,528.64,528.64,486.08,406.32,393.73,381.33,357.12,345.32,369.12,369.12,311.09,289.27,278.65,268.24,278.65,268.24,278.65,268.24,248.0,209.91,183.42,183.42,174.99,128.56,77.77,67.06,39.68,39.68,62.0,77.77,77.77,57.14,35.81,22.32,4.86,99999.0,99999.0,99999.0,99999.0,99999.0,99999.0,99999.0,99999.0,99999.0,99999.0,99999.0,99999.0,99999.0,99999.0,99999.0,99999.0,99999.0,99999.0,99999.0,0.89,99999.0,99999.0,99999.0,99999.0,209.91,209.91,228.56,258.02,258.02,278.65,289.27,345.32,311.09,345.32,289.27,381.33,381.33,381.33,238.18,209.91,200.88,248.0,300.08,322.3,322.3,393.73,458.7,432.12,558.0,572.98,528.64,393.73,219.13,52.48,4.86,99999.0,99999.0,99999.0,99999.0,99999.0,99999.0,99999.0,99999.0,99999.0,99999.0,99999.0,99999.0,99999.0,99999.0,99999.0,99999.0,99999.0,99999.0,99999.0,99999.0,99999.0,99999.0,99999.0,99999.0,99999.0,99999.0,99999.0,99999.0,99999.0,99999.0,99999.0,99999.0,99999.0,99999.0,99999.0,99999.0,99999.0,99999.0,99999.0,99999.0,99999.0,99999.0,99999.0,99999.0,99999.0,99999.0,99999.0,99999.0,99999.0,99999.0,99999.0,99999.0,99999.0,99999.0,99999.0,99999.0,99999.0,99999.0,99999.0,99999.0,99999.0,99999.0,99999.0,99999.0,99999.0,99999.0,99999.0,99999.0,99999.0,99999.0,99999.0,99999.0,99999.0,99999.0,99999.0,99999.0,99999.0,99999.0,99999.0,99999.0,99999.0,99999.0,99999.0,99999.0,99999.0,99999.0,99999.0,99999.0,99999.0,99999.0,99999.0,99999.0,99999.0,99999.0,99999.0,99999.0,99999.0,99999.0,99999.0,99999.0,99999.0,99999.0,99999.0,99999.0,99999.0,99999.0,99999.0,99999.0,99999.0,99999.0,89.28,158.72,432.12,432.12,322.3,357.12,114.68,99999.0,99999.0,99999.0,99999.0,99999.0,99999.0,99999.0,99999.0,99999.0,99999.0,99999.0,99999.0,99999.0,99999.0,99999.0,99999.0,99999.0,99999.0,99999.0,99999.0,99999.0,0.0,16.76,9.92,52.48,2.48,99999.0,99999.0,99999.0,99999.0,28.67,166.76,143.25,150.88,158.72,158.72,143.25,19.44,8.04,99999.0,99999.0,99999.0,99999.0,99999.0,99999.0,99999.0,99999.0,22.32,67.06,67.06,121.52,57.14,8.04,19.44,43.75,89.28,135.81,108.03,89.28,101.58,101.58,101.58,89.28,200.88,228.56,101.58,101.58,121.52,209.91,228.56,219.13,248.0,228.56,248.0,200.88,150.88,150.88,135.81,128.56,114.68,128.56,135.81,158.72,150.88,135.81,121.52,121.52,121.52,108.03,95.33,128.56,89.28,114.68,108.03,101.58,108.03,89.28,108.03,108.03,89.28,108.03,135.81,166.76,150.88,143.25,135.81,108.03,150.88,128.56,143.25,143.25,114.68,108.03,135.81,158.72,219.13,192.05,209.91,200.88,333.71,278.65,278.65,333.71,406.32,445.31,322.3,248.0,228.56,209.91,143.25,128.56,135.81,121.52,114.68,114.68,114.68,83.43,57.14,83.43,128.56,128.56,114.68,108.03,121.52,101.58,83.43,83.43,114.68,108.03,101.58,95.33,89.28,83.43,72.32,114.68,135.81,128.56,128.56,121.52
