89.28,95.33,108.03,114.68,135.81,150.88,166.76,183.42,200.88,200.88,200.88,209.91,209.91,192.05,183.42,192.05,209.91,238.18,238.18,200.88,183.42,174.99,183.42,158.72,166.76,174.99,192.05,200.88,200.88,219.13,238.18,238.18,228.56,238.18,219.13,219.13,219.13,219.13,228.56,228.56,238.18,258.02,278.65,278.65,311.09,311.09,322.3,345.32,369.12,406.32,445.31,486.08,445.31,445.31,445.31,445.31,432.12,472.29,458.7,472.29,458.7,445.31,419.12,357.12,311.09,322.3,311.09,278.65,289.27,345.32,432.12,322.3,248.0,219.13,192.05,183.42,209.91,228.56,258.02,300.08,458.7,458.7,228.56,183.42,174.99,200.88,166.76,101.58,83.43,101.58,114.68,121.52,135.81,135.81,200.88,268.24,369.12,200.88,89.28,62.0
89.28,89.28,101.58,128.56,150.88,150.88,174.99,192.05,200.88,192.05,183.42,183.42,174.99,174.99,183.42,200.88,219.13,228.56,228.56,209.91,192.05,166.76,174.99,158.72,158.72,166.76,183.42,192.05,200.88,219.13,228.56,219.13,209.91,219.13,209.91,209.91,209.91,219.13,238.18,238.18,228.56,248.0,268.24,289.27,300.08,311.09,322.3,333.71,357.12,406.32,486.08,486.08,514.25,500.07,472.29,445.31,445.31,486.08,472.29,543.22,543.22,445.31,393.73,345.32,333.71,322.3,278.65,268.24,278.65,333.71,393.73,406.32,311.09,228.56,209.91,192.05,200.88,209.91,238.18,322.3,445.31,357.12,258.02,192.05,166.76,166.76,192.05,114.68,89.28,114.68,135.81,150.88,200.88,135.81,166.76,248.0,322.3,381.33,183.42,121.52
89.28,95.33,101.58,121.52,143.25,166.76,183.42,200.88,209.91,200.88,183.42,166.76,158.72,166.76,192.05,209.91,209.91,200.88,192.05,183.42,183.42,174.99,158.72,150.88,166.76,174.99,174.99,183.42,200.88,219.13,209.91,200.88,200.88,200.88,200.88,209.91,219.13,228.56,228.56,248.0,238.18,248.0,258.02,268.24,278.65,289.27,300.08,322.3,357.12,406.32,472.29,486.08,514.25,543.22,514.25,486.08,472.29,486.08,500.07,514.25,486.08,432.12,419.12,381.33,311.09,300.08,289.27,333.71,311.09,311.09,322.3,369.12,322.3,248.0,228.56,219.13,200.88,219.13,248.0,322.3,406.32,289.27,200.88,174.99,158.72,143.25,150.88,143.25,89.28,114.68,143.25,183.42,219.13,166.76,158.72,258.02,381.33,393.73,500.07,419.12
89.28,101.58,108.03,121.52,143.25,158.72,166.76,183.42,200.88,192.05,174.99,158.72,158.72,174.99,183.42,200.88,209.91,200.88,192.05,200.88,183.42,166.76,150.88,166.76,166.76,174.99,192.05,192.05,209.91,209.91,192.05,192.05,200.88,209.91,219.13,219.13,228.56,238.18,238.18,248.0,248.0,248.0,258.02,268.24,278.65,278.65,300.08,322.3,357.12,393.73,445.31,500.07,572.98,514.25,572.98,528.64,528.64,528.64,500.07,486.08,445.31,406.32,369.12,345.32,333.71,357.12,345.32,381.33,357.12,333.71,311.09,369.12,322.3,268.24,238.18,219.13,200.88,228.56,258.02,322.3,381.33,289.27,200.88,183.42,150.88,135.81,128.56,135.81,89.28,101.58,121.52,158.72,258.02,200.88,166.76,183.42,248.0,333.71,419.12,716.72
95.33,101.58,121.52,135.81,135.81,143.25,158.72,166.76,174.99,166.76,158.72,166.76,174.99,183.42,192.05,192.05,200.88,200.88,192.05,192.05,200.88,183.42,150.88,192.05,209.91,183.42,192.05,200.88,209.91,200.88,192.05,192.05,209.91,219.13,219.13,228.56,238.18,248.0,248.0,258.02,258.02,248.0,268.24,278.65,278.65,289.27,300.08,311.09,333.71,381.33,445.31,458.7,486.08,486.08,500.07,543.22,558.0,486.08,445.31,419.12,393.73,369.12,357.12,345.32,357.12,393.73,393.73,393.73,369.12,381.33,369.12,406.32,381.33,278.65,238.18,219.13,209.91,238.18,268.24,300.08,345.32,289.27,192.05,166.76,150.88,128.56,114.68,114.68,95.33,114.68,135.81,158.72,219.13,311.09,219.13,200.88,248.0,333.71,393.73,650.85
108.03,121.52,135.81,143.25,150.88,143.25,150.88,143.25,143.25,150.88,174.99,192.05,192.05,183.42,192.05,200.88,200.88,183.42,174.99,192.05,166.76,150.88,158.72,192.05,238.18,209.91,209.91,209.91,192.05,192.05,183.42,192.05,200.88,228.56,238.18,238.18,258.02,278.65,268.24,278.65,258.02,258.02,258.02,278.65,289.27,300.08,300.08,311.09,333.71,345.32,369.12,393.73,419.12,458.7,472.29,500.07,588.16,588.16,572.98,419.12,381.33,393.73,369.12,357.12,381.33,393.73,445.31,500.07,432.12,603.53,543.22,588.16,393.73,289.27,258.02,238.18,209.91,238.18,278.65,300.08,381.33,268.24,183.42,150.88,128.56,135.81,128.56,114.68,128.56,114.68,135.81,192.05,228.56,345.32,268.24,268.24,268.24,300.08,393.73,472.29
114.68,135.81,135.81,135.81,135.81,135.81,128.56,143.25,150.88,166.76,183.42,219.13,219.13,192.05,192.05,200.88,192.05,183.42,174.99,166.76,158.72,150.88,166.76,200.88,228.56,268.24,258.02,200.88,183.42,183.42,183.42,200.88,219.13,228.56,248.0,258.02,311.09,322.3,289.27,289.27,268.24,268.24,258.02,278.65,300.08,311.09,333.71,333.71,345.32,345.32,357.12,381.33,419.12,472.29,486.08,528.64,558.0,588.16,619.11,572.98,432.12,419.12,406.32,419.12,406.32,458.7,528.64,716.72,699.96,750.85,650.85,543.22,445.31,311.09,248.0,258.02,258.02,228.56,268.24,357.12,445.31,268.24,192.05,158.72,158.72,166.76,150.88,128.56,158.72,121.52,143.25,183.42,248.0,357.12,357.12,345.32,393.73,393.73,458.7,472.29
114.68,121.52,128.56,135.81,121.52,121.52,128.56,150.88,166.76,192.05,219.13,219.13,200.88,183.42,183.42,183.42,183.42,174.99,166.76,158.72,143.25,150.88,166.76,219.13,268.24,278.65,268.24,200.88,183.42,183.42,200.88,228.56,278.65,258.02,268.24,289.27,393.73,393.73,322.3,300.08,278.65,289.27,278.65,278.65,278.65,311.09,333.71,357.12,419.12,369.12,393.73,381.33,432.12,486.08,514.25,500.07,572.98,588.16,572.98,572.98,528.64,514.25,472.29,543.22,445.31,514.25,667.02,876.53,933.37,803.52,619.11,558.0,543.22,333.71,311.09,300.08,300.08,238.18,268.24,381.33,393.73,200.88,166.76,183.42,219.13,219.13,183.42,158.72,158.72,143.25,143.25,183.42,228.56,333.71,381.33,369.12,393.73,381.33,393.73,445.31
108.03,121.52,128.56,121.52,108.03,121.52,135.81,143.25,166.76,183.42,209.91,219.13,183.42,174.99,166.76,183.42,192.05,183.42,166.76,143.25,135.81,150.88,174.99,209.91,228.56,238.18,219.13,183.42,174.99,183.42,209.91,248.0,300.08,333.71,322.3,333.71,393.73,393.73,357.12,322.3,300.08,300.08,289.27,300.08,300.08,311.09,322.3,381.33,406.32,393.73,406.32,406.32,406.32,419.12,458.7,514.25,528.64,543.22,572.98,572.98,528.64,528.64,543.22,634.88,603.53,683.39,768.21,803.52,876.53,895.28,895.28,839.63,603.53,381.33,345.32,311.09,311.09,278.65,278.65,472.29,432.12,228.56,200.88,238.18,345.32,333.71,278.65,192.05,174.99,174.99,150.88,166.76,209.91,289.27,345.32,393.73,381.33,345.32,357.12,458.7
114.68,128.56,114.68,101.58,108.03,121.52,128.56,143.25,158.72,174.99,200.88,219.13,192.05,158.72,183.42,183.42,174.99,166.76,150.88,135.81,135.81,143.25,166.76,200.88,200.88,219.13,183.42,166.76,174.99,183.42,200.88,248.0,311.09,345.32,322.3,345.32,369.12,369.12,381.33,333.71,333.71,333.71,300.08,311.09,300.08,322.3,333.71,369.12,406.32,406.32,432.12,432.12,419.12,432.12,445.31,486.08,543.22,558.0,572.98,603.53,558.0,572.98,572.98,619.11,619.11,699.96,750.85,768.21,839.63,803.52,895.28,1011.94,634.88,369.12,311.09,278.65,268.24,311.09,393.73,393.73,381.33,300.08,278.65,381.33,393.73,381.33,311.09,289.27,209.91,174.99,150.88,166.76,248.0,345.32,419.12,419.12,369.12,311.09,311.09,381.33
114.68,121.52,101.58,101.58,101.58,114.68,128.56,150.88,183.42,209.91,219.13,183.42,158.72,143.25,150.88,166.76,158.72,143.25,135.81,128.56,135.81,150.88,158.72,166.76,174.99,166.76,158.72,166.76,183.42,209.91,248.0,248.0,311.09,311.09,322.3,345.32,357.12,357.12,369.12,357.12,357.12,345.32,311.09,322.3,322.3,333.71,369.12,393.73,393.73,419.12,432.12,406.32,393.73,432.12,458.7,472.29,500.07,528.64,558.0,588.16,588.16,558.0,558.0,603.53,683.39,683.39,733.68,785.76,750.85,733.68,803.52,821.48,667.02,381.33,333.71,333.71,278.65,278.65,445.31,458.7,393.73,472.29,500.07,472.29,432.12,357.12,345.32,333.71,322.3,238.18,183.42,158.72,219.13,311.09,369.12,419.12,381.33,345.32,289.27,289.27
101.58,101.58,95.33,95.33,101.58,114.68,135.81,150.88,174.99,209.91,174.99,150.88,135.81,135.81,135.81,174.99,150.88,128.56,128.56,128.56,135.81,143.25,143.25,150.88,150.88,158.72,166.76,174.99,192.05,238.18,258.02,278.65,268.24,322.3,333.71,345.32,345.32,345.32,345.32,333.71,369.12,357.12,333.71,345.32,357.12,369.12,406.32,381.33,393.73,419.12,406.32,381.33,381.33,406.32,445.31,458.7,486.08,528.64,572.98,588.16,543.22,528.64,543.22,603.53,716.72,750.85,699.96,716.72,667.02,683.39,699.96,650.85,683.39,634.88,528.64,406.32,333.71,300.08,369.12,588.16,514.25,514.25,472.29,406.32,357.12,300.08,322.3,289.27,345.32,333.71,228.56,174.99,192.05,300.08,393.73,419.12,406.32,369.12,333.71,289.27
89.28,95.33,89.28,89.28,101.58,128.56,128.56,135.81,174.99,192.05,158.72,135.81,128.56,128.56,128.56,143.25,150.88,128.56,128.56,128.56,135.81,135.81,143.25,158.72,183.42,192.05,209.91,200.88,192.05,238.18,238.18,278.65,300.08,311.09,311.09,322.3,311.09,322.3,333.71,333.71,357.12,322.3,322.3,369.12,381.33,393.73,393.73,381.33,393.73,406.32,369.12,369.12,393.73,406.32,432.12,432.12,458.7,500.07,543.22,528.64,543.22,514.25,572.98,588.16,619.11,650.85,683.39,650.85,650.85,650.85,603.53,572.98,572.98,667.02,667.02,558.0,500.07,419.12,322.3,514.25,486.08,472.29,458.7,393.73,322.3,289.27,258.02,248.0,311.09,345.32,311.09,228.56,258.02,369.12,419.12,406.32,406.32,393.73,322.3,278.65
89.28,83.43,83.43,89.28,101.58,114.68,114.68,135.81,166.76,166.76,135.81,121.52,121.52,121.52,121.52,121.52,135.81,128.56,128.56,128.56,135.81,135.81,143.25,174.99,200.88,228.56,278.65,258.02,209.91,209.91,248.0,278.65,289.27,289.27,300.08,311.09,311.09,300.08,322.3,311.09,322.3,300.08,322.3,333.71,369.12,393.73,381.33,369.12,393.73,393.73,369.12,369.12,381.33,406.32,419.12,419.12,432.12,458.7,500.07,486.08,500.07,500.07,558.0,528.64,572.98,619.11,619.11,603.53,634.88,619.11,558.0,528.64,528.64,558.0,543.22,528.64,500.07,528.64,357.12,528.64,543.22,486.08,369.12,311.09,311.09,322.3,289.27,248.0,238.18,289.27,300.08,238.18,300.08,333.71,406.32,393.73,393.73,393.73,322.3,311.09
77.77,77.77,83.43,101.58,128.56,128.56,121.52,150.88,150.88,150.88,150.88,114.68,114.68,114.68,114.68,114.68,121.52,121.52,128.56,128.56,128.56,135.81,150.88,174.99,200.88,219.13,258.02,289.27,258.02,238.18,238.18,268.24,278.65,278.65,289.27,289.27,289.27,300.08,300.08,289.27,300.08,311.09,333.71,369.12,369.12,381.33,369.12,369.12,381.33,381.33,357.12,357.12,381.33,393.73,406.32,406.32,432.12,458.7,445.31,472.29,500.07,528.64,500.07,528.64,572.98,588.16,558.0,603.53,603.53,558.0,528.64,514.25,500.07,528.64,528.64,500.07,472.29,500.07,432.12,472.29,543.22,486.08,393.73,311.09,289.27,258.02,238.18,228.56,238.18,228.56,192.05,219.13,278.65,357.12,393.73,369.12,345.32,357.12,311.09,238.18
83.43,83.43,95.33,128.56,135.81,135.81,150.88,135.81,135.81,166.76,158.72,114.68,108.03,108.03,114.68,114.68,121.52,121.52,121.52,128.56,143.25,143.25,150.88,166.76,200.88,219.13,238.18,258.02,300.08,258.02,248.0,248.0,258.02,268.24,278.65,268.24,278.65,289.27,268.24,289.27,311.09,333.71,381.33,406.32,406.32,381.33,357.12,357.12,381.33,381.33,345.32,345.32,369.12,381.33,381.33,393.73,432.12,432.12,432.12,445.31,486.08,486.08,500.07,528.64,558.0,558.0,528.64,558.0,558.0,528.64,472.29,486.08,500.07,514.25,500.07,486.08,472.29,486.08,500.07,458.7,472.29,419.12,357.12,333.71,311.09,258.02,268.24,238.18,192.05,200.88,209.91,238.18,278.65,357.12,419.12,369.12,345.32,322.3,300.08,248.0
108.03,101.58,101.58,114.68,114.68,121.52,143.25,128.56,121.52,135.81,128.56,108.03,108.03,108.03,114.68,114.68,114.68,121.52,135.81,128.56,135.81,143.25,158.72,174.99,200.88,209.91,219.13,248.0,238.18,258.02,268.24,258.02,258.02,258.02,268.24,268.24,278.65,268.24,268.24,300.08,345.32,357.12,381.33,381.33,381.33,369.12,345.32,357.12,381.33,393.73,369.12,333.71,345.32,369.12,381.33,393.73,406.32,393.73,406.32,432.12,472.29,514.25,558.0,543.22,543.22,514.25,486.08,500.07,500.07,472.29,472.29,486.08,528.64,543.22,472.29,458.7,458.7,472.29,458.7,432.12,381.33,345.32,300.08,278.65,268.24,248.0,228.56,209.91,200.88,238.18,248.0,238.18,268.24,322.3,381.33,357.12,345.32,322.3,278.65,248.0
114.68,121.52,114.68,135.81,128.56,121.52,135.81,128.56,108.03,108.03,101.58,108.03,108.03,108.03,114.68,114.68,114.68,121.52,143.25,143.25,135.81,143.25,174.99,200.88,183.42,200.88,209.91,219.13,228.56,248.0,258.02,268.24,289.27,268.24,238.18,248.0,268.24,258.02,258.02,300.08,311.09,345.32,345.32,357.12,345.32,333.71,333.71,345.32,357.12,381.33,381.33,333.71,345.32,357.12,357.12,381.33,381.33,381.33,406.32,445.31,500.07,543.22,588.16,543.22,514.25,500.07,486.08,458.7,445.31,445.31,458.7,500.07,667.02,558.0,458.7,445.31,432.12,419.12,419.12,369.12,369.12,333.71,345.32,258.02,219.13,219.13,209.91,228.56,200.88,248.0,289.27,278.65,248.0,311.09,357.12,333.71,345.32,300.08,258.02,300.08
108.03,114.68,128.56,166.76,166.76,135.81,135.81,128.56,101.58,101.58,101.58,101.58,108.03,108.03,114.68,114.68,114.68,128.56,143.25,143.25,135.81,143.25,166.76,192.05,183.42,183.42,192.05,209.91,219.13,228.56,268.24,248.0,258.02,248.0,248.0,238.18,258.02,258.02,268.24,289.27,311.09,345.32,333.71,333.71,333.71,333.71,333.71,345.32,345.32,345.32,357.12,333.71,345.32,369.12,345.32,357.12,369.12,393.73,406.32,458.7,500.07,543.22,588.16,558.0,528.64,528.64,486.08,445.31,419.12,432.12,458.7,486.08,603.53,603.53,472.29,419.12,406.32,381.33,393.73,406.32,393.73,357.12,345.32,268.24,228.56,228.56,248.0,238.18,219.13,238.18,258.02,289.27,311.09,357.12,406.32,357.12,333.71,300.08,322.3,345.32
95.33,108.03,135.81,150.88,135.81,121.52,108.03,101.58,95.33,101.58,101.58,101.58,108.03,121.52,143.25,121.52,135.81,143.25,135.81,150.88,150.88,143.25,158.72,192.05,174.99,174.99,183.42,192.05,219.13,238.18,258.02,248.0,228.56,228.56,228.56,248.0,248.0,268.24,268.24,289.27,345.32,345.32,333.71,322.3,322.3,322.3,322.3,345.32,333.71,322.3,333.71,322.3,369.12,369.12,345.32,369.12,369.12,393.73,419.12,458.7,500.07,500.07,603.53,558.0,572.98,558.0,500.07,472.29,419.12,432.12,500.07,543.22,619.11,500.07,445.31,432.12,432.12,393.73,432.12,406.32,345.32,333.71,300.08,248.0,238.18,268.24,248.0,238.18,228.56,258.02,300.08,300.08,311.09,369.12,393.73,333.71,300.08,345.32,381.33,345.32
95.33,121.52,158.72,114.68,108.03,101.58,95.33,95.33,95.33,95.33,101.58,101.58,101.58,121.52,174.99,183.42,174.99,166.76,158.72,150.88,143.25,150.88,166.76,183.42,166.76,166.76,174.99,183.42,209.91,228.56,248.0,248.0,238.18,228.56,238.18,268.24,258.02,258.02,268.24,300.08,345.32,357.12,333.71,322.3,322.3,311.09,311.09,333.71,345.32,322.3,322.3,322.3,357.12,357.12,333.71,369.12,393.73,432.12,445.31,445.31,458.7,486.08,543.22,543.22,588.16,558.0,514.25,458.7,406.32,419.12,514.25,572.98,603.53,486.08,432.12,432.12,406.32,406.32,357.12,345.32,322.3,300.08,268.24,268.24,258.02,268.24,268.24,268.24,258.02,248.0,278.65,311.09,345.32,381.33,333.71,311.09,333.71,381.33,406.32,357.12
95.33,135.81,143.25,95.33,95.33,89.28,89.28,89.28,95.33,95.33,101.58,101.58,101.58,121.52,166.76,200.88,192.05,183.42,174.99,166.76,143.25,143.25,158.72,166.76,158.72,158.72,166.76,174.99,209.91,248.0,248.0,228.56,238.18,219.13,248.0,268.24,258.02,258.02,278.65,311.09,333.71,345.32,333.71,345.32,322.3,311.09,300.08,300.08,311.09,311.09,311.09,311.09,333.71,333.71,333.71,357.12,393.73,445.31,445.31,419.12,445.31,472.29,543.22,588.16,603.53,558.0,486.08,514.25,419.12,393.73,486.08,500.07,500.07,500.07,406.32,432.12,381.33,393.73,419.12,369.12,357.12,311.09,289.27,289.27,322.3,311.09,322.3,322.3,258.02,268.24,268.24,333.71,357.12,369.12,322.3,333.71,333.71,381.33,393.73,393.73
114.68,150.88,114.68,89.28,89.28,89.28,95.33,89.28,89.28,95.33,95.33,95.33,101.58,128.56,158.72,166.76,183.42,192.05,200.88,192.05,158.72,143.25,158.72,150.88,150.88,150.88,158.72,174.99,209.91,228.56,258.02,238.18,228.56,219.13,228.56,258.02,268.24,268.24,289.27,300.08,322.3,322.3,311.09,333.71,333.71,322.3,311.09,322.3,311.09,300.08,300.08,300.08,322.3,322.3,333.71,369.12,406.32,419.12,419.12,406.32,432.12,445.31,486.08,528.64,572.98,514.25,486.08,445.31,445.31,406.32,445.31,458.7,472.29,458.7,406.32,393.73,393.73,381.33,393.73,419.12,406.32,369.12,357.12,357.12,345.32,333.71,333.71,333.71,289.27,322.3,300.08,333.71,369.12,345.32,333.71,369.12,381.33,393.73,419.12,406.32
143.25,128.56,121.52,89.28,89.28,95.33,101.58,89.28,89.28,89.28,95.33,95.33,95.33,135.81,143.25,143.25,174.99,219.13,209.91,200.88,174.99,150.88,143.25,150.88,150.88,150.88,158.72,174.99,200.88,219.13,268.24,238.18,209.91,219.13,258.02,258.02,248.0,248.0,289.27,289.27,300.08,300.08,289.27,322.3,345.32,333.71,333.71,311.09,300.08,300.08,289.27,300.08,300.08,311.09,357.12,381.33,419.12,406.32,393.73,381.33,406.32,432.12,486.08,500.07,514.25,472.29,486.08,445.31,393.73,369.12,381.33,419.12,393.73,419.12,419.12,393.73,345.32,357.12,357.12,432.12,406.32,381.33,406.32,393.73,357.12,381.33,406.32,369.12,369.12,381.33,357.12,357.12,357.12,345.32,322.3,345.32,369.12,393.73,393.73,393.73
128.56,114.68,128.56,101.58,89.28,101.58,101.58,89.28,89.28,89.28,89.28,95.33,95.33,121.52,121.52,135.81,166.76,219.13,219.13,200.88,183.42,158.72,150.88,150.88,150.88,150.88,166.76,183.42,192.05,219.13,258.02,248.0,209.91,209.91,238.18,238.18,228.56,248.0,289.27,278.65,278.65,289.27,278.65,300.08,322.3,322.3,333.71,300.08,311.09,300.08,289.27,289.27,300.08,311.09,345.32,381.33,381.33,406.32,369.12,393.73,419.12,458.7,472.29,458.7,458.7,445.31,472.29,419.12,393.73,357.12,357.12,381.33,369.12,406.32,406.32,357.12,333.71,345.32,333.71,381.33,345.32,369.12,381.33,357.12,345.32,357.12,345.32,369.12,393.73,406.32,381.33,357.12,322.3,322.3,333.71,345.32,357.12,357.12,357.12,369.12
121.52,101.58,114.68,121.52,108.03,108.03,108.03,89.28,89.28,89.28,89.28,89.28,95.33,121.52,121.52,150.88,200.88,192.05,219.13,209.91,192.05,166.76,150.88,150.88,158.72,158.72,166.76,200.88,209.91,228.56,238.18,228.56,200.88,200.88,219.13,209.91,219.13,238.18,268.24,268.24,258.02,289.27,268.24,289.27,300.08,289.27,322.3,300.08,289.27,311.09,300.08,289.27,289.27,300.08,322.3,357.12,345.32,357.12,369.12,406.32,432.12,445.31,432.12,406.32,419.12,419.12,432.12,432.12,393.73,381.33,333.71,369.12,369.12,381.33,369.12,345.32,311.09,300.08,322.3,311.09,333.71,322.3,333.71,322.3,333.71,333.71,345.32,357.12,369.12,345.32,345.32,333.71,311.09,333.71,345.32,345.32,333.71,322.3,322.3,357.12
101.58,101.58,108.03,121.52,135.81,128.56,135.81,114.68,83.43,89.28,89.28,89.28,95.33,108.03,121.52,135.81,150.88,174.99,209.91,209.91,192.05,174.99,166.76,158.72,166.76,166.76,174.99,209.91,219.13,238.18,238.18,228.56,200.88,192.05,200.88,200.88,219.13,248.0,268.24,268.24,248.0,278.65,268.24,278.65,268.24,289.27,300.08,289.27,289.27,289.27,289.27,278.65,289.27,300.08,333.71,333.71,333.71,357.12,393.73,406.32,432.12,406.32,393.73,369.12,381.33,406.32,419.12,393.73,369.12,357.12,322.3,345.32,357.12,369.12,357.12,357.12,322.3,300.08,289.27,300.08,322.3,300.08,300.08,333.71,311.09,322.3,322.3,322.3,333.71,345.32,333.71,311.09,322.3,333.71,322.3,333.71,322.3,311.09,311.09,333.71
89.28,108.03,108.03,114.68,135.81,143.25,158.72,135.81,83.43,83.43,83.43,89.28,108.03,108.03,114.68,121.52,143.25,166.76,192.05,200.88,183.42,183.42,174.99,158.72,174.99,166.76,183.42,238.18,238.18,228.56,248.0,219.13,192.05,183.42,192.05,209.91,238.18,258.02,278.65,268.24,248.0,258.02,278.65,258.02,258.02,278.65,268.24,268.24,258.02,258.02,268.24,268.24,278.65,300.08,322.3,322.3,333.71,357.12,369.12,381.33,381.33,381.33,357.12,357.12,381.33,393.73,393.73,381.33,357.12,345.32,311.09,345.32,381.33,369.12,322.3,369.12,333.71,311.09,300.08,289.27,311.09,300.08,289.27,333.71,311.09,300.08,300.08,300.08,300.08,322.3,322.3,300.08,300.08,311.09,345.32,311.09,311.09,311.09,311.09,322.3
83.43,101.58,108.03,101.58,114.68,135.81,150.88,101.58,89.28,83.43,83.43,95.33,121.52,108.03,114.68,135.81,143.25,174.99,166.76,174.99,174.99,183.42,166.76,166.76,174.99,174.99,192.05,238.18,228.56,219.13,238.18,200.88,183.42,183.42,200.88,219.13,238.18,248.0,258.02,268.24,248.0,238.18,268.24,258.02,248.0,278.65,278.65,258.02,248.0,258.02,258.02,268.24,278.65,289.27,311.09,311.09,322.3,333.71,345.32,369.12,357.12,345.32,333.71,345.32,345.32,369.12,393.73,369.12,369.12,357.12,311.09,333.71,369.12,333.71,311.09,345.32,322.3,311.09,289.27,278.65,289.27,289.27,268.24,289.27,278.65,289.27,289.27,289.27,278.65,289.27,289.27,289.27,300.08,300.08,300.08,311.09,311.09,311.09,311.09,322.3
77.77,101.58,95.33,95.33,101.58,108.03,166.76,121.52,95.33,83.43,83.43,121.52,143.25,121.52,121.52,135.81,150.88,183.42,166.76,158.72,158.72,166.76,158.72,166.76,174.99,192.05,200.88,228.56,228.56,209.91,209.91,192.05,174.99,174.99,192.05,200.88,219.13,238.18,228.56,238.18,248.0,228.56,258.02,258.02,248.0,268.24,289.27,248.0,248.0,248.0,258.02,258.02,278.65,289.27,300.08,300.08,311.09,322.3,345.32,345.32,333.71,322.3,322.3,322.3,311.09,345.32,357.12,357.12,357.12,333.71,311.09,322.3,357.12,345.32,300.08,300.08,345.32,345.32,278.65,278.65,248.0,258.02,248.0,258.02,258.02,268.24,278.65,268.24,278.65,278.65,278.65,278.65,311.09,322.3,300.08,322.3,311.09,333.71,322.3,311.09
89.28,101.58,95.33,95.33,95.33,101.58,150.88,128.56,101.58,83.43,77.77,108.03,135.81,128.56,128.56,143.25,143.25,174.99,166.76,150.88,143.25,150.88,166.76,174.99,174.99,209.91,200.88,219.13,238.18,219.13,192.05,183.42,166.76,174.99,183.42,192.05,228.56,228.56,238.18,228.56,219.13,228.56,258.02,258.02,228.56,258.02,278.65,248.0,248.0,248.0,248.0,258.02,268.24,278.65,278.65,289.27,311.09,300.08,300.08,311.09,311.09,311.09,311.09,300.08,311.09,333.71,322.3,345.32,333.71,311.09,289.27,311.09,322.3,333.71,322.3,289.27,289.27,311.09,278.65,258.02,258.02,248.0,248.0,258.02,268.24,268.24,258.02,268.24,268.24,268.24,278.65,278.65,300.08,322.3,333.71,333.71,322.3,345.32,357.12,333.71
108.03,114.68,114.68,114.68,114.68,101.58,121.52,135.81,95.33,77.77,77.77,89.28,143.25,150.88,166.76,174.99,158.72,158.72,166.76,150.88,128.56,143.25,166.76,200.88,192.05,200.88,192.05,209.91,238.18,219.13,192.05,174.99,166.76,166.76,200.88,209.91,219.13,209.91,209.91,228.56,219.13,228.56,248.0,219.13,238.18,258.02,238.18,248.0,238.18,238.18,238.18,248.0,258.02,258.02,268.24,278.65,278.65,268.24,268.24,268.24,300.08,300.08,289.27,278.65,300.08,300.08,289.27,311.09,289.27,289.27,289.27,289.27,311.09,311.09,300.08,289.27,268.24,268.24,258.02,238.18,238.18,258.02,268.24,300.08,300.08,278.65,278.65,278.65,268.24,268.24,268.24,278.65,278.65,311.09,333.71,333.71,333.71,369.12,381.33,345.32
166.76,158.72,150.88,158.72,143.25,101.58,95.33,121.52,108.03,89.28,77.77,89.28,114.68,150.88,174.99,158.72,143.25,135.81,143.25,135.81,121.52,135.81,158.72,183.42,200.88,209.91,192.05,192.05,200.88,192.05,183.42,158.72,158.72,166.76,183.42,219.13,228.56,219.13,209.91,219.13,209.91,209.91,219.13,219.13,238.18,258.02,228.56,228.56,238.18,238.18,238.18,238.18,248.0,248.0,258.02,258.02,248.0,248.0,248.0,258.02,268.24,278.65,278.65,268.24,268.24,268.24,278.65,300.08,289.27,278.65,289.27,278.65,289.27,268.24,278.65,268.24,258.02,248.0,228.56,238.18,268.24,289.27,300.08,322.3,300.08,300.08,289.27,289.27,278.65,278.65,278.65,278.65,278.65,289.27,311.09,333.71,357.12,369.12,381.33,345.32
166.76,166.76,158.72,135.81,101.58,89.28,77.77,89.28,108.03,83.43,72.32,83.43,108.03,114.68,150.88,143.25,121.52,121.52,114.68,114.68,121.52,143.25,158.72,183.42,200.88,219.13,200.88,174.99,192.05,166.76,158.72,158.72,166.76,174.99,192.05,228.56,248.0,228.56,219.13,209.91,219.13,209.91,200.88,219.13,248.0,248.0,228.56,228.56,228.56,228.56,228.56,228.56,238.18,238.18,238.18,238.18,238.18,238.18,238.18,238.18,238.18,258.02,258.02,258.02,248.0,248.0,289.27,289.27,258.02,268.24,278.65,268.24,268.24,268.24,248.0,238.18,228.56,228.56,228.56,258.02,322.3,300.08,322.3,345.32,322.3,322.3,311.09,311.09,289.27,289.27,278.65,278.65,289.27,300.08,311.09,322.3,345.32,357.12,381.33,357.12
114.68,101.58,95.33,77.77,72.32,67.06,72.32,89.28,101.58,77.77,72.32,89.28,114.68,150.88,143.25,143.25,128.56,108.03,108.03,108.03,121.52,143.25,166.76,192.05,183.42,209.91,192.05,174.99,166.76,158.72,150.88,150.88,158.72,174.99,192.05,228.56,238.18,238.18,228.56,228.56,238.18,219.13,192.05,219.13,258.02,258.02,248.0,228.56,219.13,219.13,219.13,228.56,228.56,228.56,228.56,228.56,228.56,228.56,228.56,228.56,248.0,248.0,248.0,238.18,238.18,248.0,248.0,258.02,258.02,258.02,268.24,258.02,258.02,248.0,238.18,238.18,228.56,219.13,228.56,258.02,278.65,289.27,322.3,322.3,311.09,322.3,333.71,322.3,311.09,300.08,289.27,289.27,289.27,300.08,300.08,322.3,357.12,369.12,381.33,357.12
89.28,62.0,57.14,57.14,62.0,62.0,67.06,72.32,72.32,72.32,72.32,77.77,114.68,135.81,128.56,135.81,135.81,108.03,101.58,108.03,128.56,135.81,174.99,166.76,158.72,200.88,200.88,166.76,150.88,150.88,143.25,150.88,166.76,174.99,192.05,219.13,219.13,238.18,228.56,228.56,228.56,209.91,192.05,219.13,228.56,238.18,268.24,248.0,219.13,219.13,219.13,219.13,209.91,219.13,219.13,219.13,219.13,219.13,219.13,219.13,238.18,228.56,228.56,228.56,219.13,238.18,248.0,228.56,238.18,248.0,248.0,258.02,248.0,238.18,238.18,228.56,228.56,228.56,238.18,248.0,258.02,289.27,322.3,289.27,300.08,289.27,300.08,300.08,300.08,289.27,278.65,289.27,289.27,289.27,289.27,311.09,357.12,369.12,369.12,381.33
57.14,72.32,77.77,77.77,77.77,62.0,62.0,67.06,67.06,67.06,67.06,72.32,77.77,95.33,108.03,128.56,128.56,101.58,101.58,114.68,135.81,150.88,166.76,158.72,143.25,158.72,183.42,150.88,143.25,150.88,143.25,143.25,158.72,174.99,183.42,209.91,200.88,228.56,248.0,219.13,209.91,200.88,183.42,228.56,228.56,219.13,228.56,228.56,209.91,209.91,209.91,209.91,209.91,209.91,209.91,209.91,209.91,209.91,209.91,219.13,238.18,228.56,219.13,219.13,219.13,219.13,228.56,228.56,238.18,238.18,238.18,238.18,238.18,238.18,228.56,228.56,219.13,219.13,228.56,258.02,278.65,289.27,278.65,278.65,258.02,278.65,268.24,268.24,268.24,258.02,268.24,258.02,268.24,278.65,278.65,300.08,311.09,322.3,333.71,357.12
67.06,95.33,121.52,108.03,83.43,67.06,62.0,67.06,67.06,67.06,67.06,72.32,72.32,77.77,95.33,121.52,95.33,95.33,108.03,121.52,143.25,166.76,166.76,150.88,128.56,128.56,150.88,158.72,135.81,143.25,143.25,143.25,150.88,158.72,166.76,200.88,200.88,200.88,219.13,209.91,209.91,183.42,183.42,219.13,219.13,200.88,200.88,200.88,200.88,200.88,200.88,200.88,200.88,200.88,192.05,200.88,200.88,200.88,200.88,209.91,228.56,219.13,209.91,209.91,209.91,209.91,219.13,219.13,228.56,228.56,228.56,228.56,228.56,228.56,219.13,219.13,209.91,219.13,248.0,248.0,258.02,278.65,258.02,248.0,248.0,248.0,238.18,248.0,238.18,238.18,248.0,258.02,258.02,268.24,278.65,289.27,311.09,311.09,333.71,357.12
83.43,128.56,150.88,121.52,108.03,89.28,67.06,62.0,67.06,67.06,67.06,72.32,72.32,83.43,89.28,89.28,108.03,114.68,121.52,128.56,150.88,192.05,192.05,158.72,121.52,121.52,128.56,143.25,128.56,143.25,150.88,150.88,143.25,150.88,166.76,200.88,192.05,183.42,200.88,200.88,200.88,183.42,174.99,219.13,228.56,209.91,192.05,200.88,200.88,200.88,200.88,192.05,192.05,183.42,192.05,192.05,192.05,200.88,192.05,200.88,219.13,200.88,200.88,200.88,200.88,200.88,200.88,209.91,209.91,209.91,219.13,219.13,219.13,219.13,209.91,209.91,209.91,219.13,248.0,228.56,238.18,248.0,238.18,219.13,228.56,228.56,228.56,228.56,238.18,248.0,248.0,248.0,258.02,258.02,268.24,289.27,333.71,322.3,333.71,357.12
95.33,114.68,128.56,135.81,121.52,114.68,72.32,62.0,62.0,67.06,67.06,72.32,83.43,89.28,95.33,101.58,114.68,128.56,143.25,135.81,166.76,174.99,192.05,158.72,114.68,114.68,128.56,128.56,128.56,143.25,158.72,150.88,135.81,143.25,166.76,200.88,200.88,192.05,183.42,200.88,183.42,174.99,192.05,209.91,192.05,200.88,192.05,192.05,192.05,192.05,200.88,192.05,183.42,183.42,183.42,183.42,192.05,183.42,183.42,209.91,183.42,183.42,183.42,192.05,192.05,192.05,192.05,200.88,200.88,209.91,209.91,209.91,209.91,209.91,209.91,209.91,200.88,209.91,219.13,219.13,200.88,200.88,209.91,209.91,219.13,238.18,228.56,228.56,248.0,258.02,248.0,248.0,248.0,258.02,289.27,300.08,345.32,345.32,345.32,369.12
89.28,114.68,121.52,121.52,128.56,108.03,77.77,67.06,72.32,72.32,72.32,83.43,101.58,114.68,114.68,114.68,135.81,166.76,183.42,158.72,143.25,158.72,150.88,128.56,114.68,121.52,128.56,128.56,135.81,143.25,158.72,150.88,135.81,143.25,158.72,183.42,209.91,192.05,166.76,174.99,166.76,166.76,192.05,183.42,183.42,183.42,183.42,183.42,183.42,192.05,183.42,183.42,183.42,174.99,174.99,174.99,183.42,174.99,183.42,192.05,174.99,174.99,174.99,183.42,183.42,183.42,183.42,192.05,192.05,200.88,200.88,200.88,200.88,200.88,200.88,200.88,200.88,200.88,192.05,192.05,200.88,209.91,228.56,238.18,238.18,248.0,248.0,238.18,248.0,238.18,228.56,238.18,248.0,248.0,268.24,278.65,289.27,300.08,345.32,369.12
89.28,114.68,128.56,128.56,128.56,108.03,89.28,72.32,72.32,77.77,83.43,101.58,150.88,135.81,150.88,128.56,166.76,166.76,150.88,150.88,150.88,128.56,114.68,108.03,108.03,121.52,158.72,143.25,135.81,150.88,174.99,166.76,150.88,150.88,192.05,209.91,200.88,183.42,158.72,158.72,158.72,166.76,174.99,174.99,174.99,183.42,183.42,183.42,183.42,183.42,183.42,174.99,174.99,174.99,166.76,166.76,166.76,166.76,174.99,183.42,174.99,166.76,174.99,174.99,174.99,174.99,183.42,183.42,183.42,192.05,192.05,192.05,192.05,192.05,192.05,192.05,192.05,192.05,192.05,192.05,192.05,200.88,209.91,219.13,248.0,248.0,248.0,228.56,228.56,209.91,209.91,219.13,219.13,228.56,238.18,238.18,258.02,278.65,311.09,345.32
83.43,101.58,121.52,128.56,121.52,108.03,89.28,89.28,83.43,83.43,101.58,143.25,183.42,200.88,166.76,128.56,128.56,128.56,135.81,121.52,121.52,101.58,101.58,114.68,143.25,158.72,192.05,158.72,150.88,183.42,183.42,158.72,143.25,158.72,192.05,219.13,219.13,174.99,158.72,158.72,158.72,166.76,166.76,166.76,174.99,183.42,174.99,183.42,174.99,174.99,174.99,174.99,166.76,166.76,166.76,158.72,158.72,158.72,158.72,158.72,158.72,166.76,166.76,166.76,166.76,166.76,174.99,174.99,183.42,183.42,183.42,183.42,183.42,183.42,183.42,183.42,183.42,183.42,183.42,192.05,192.05,209.91,228.56,228.56,238.18,219.13,209.91,200.88,200.88,200.88,209.91,209.91,209.91,219.13,228.56,238.18,258.02,278.65,289.27,345.32
89.28,108.03,121.52,128.56,121.52,121.52,114.68,114.68,89.28,95.33,121.52,150.88,209.91,238.18,174.99,114.68,101.58,95.33,95.33,101.58,108.03,101.58,101.58,114.68,166.76,158.72,183.42,174.99,166.76,183.42,183.42,158.72,143.25,143.25,174.99,200.88,183.42,166.76,158.72,150.88,158.72,158.72,166.76,183.42,192.05,183.42,174.99,174.99,174.99,166.76,166.76,166.76,166.76,166.76,158.72,158.72,158.72,158.72,150.88,150.88,158.72,158.72,158.72,158.72,158.72,158.72,166.76,174.99,174.99,174.99,174.99,174.99,174.99,174.99,174.99,183.42,183.42,183.42,183.42,192.05,200.88,209.91,228.56,228.56,219.13,200.88,183.42,192.05,192.05,192.05,200.88,200.88,200.88,209.91,219.13,228.56,248.0,258.02,278.65,322.3
95.33,108.03,121.52,128.56,114.68,128.56,121.52,114.68,95.33,101.58,121.52,166.76,192.05,209.91,135.81,95.33,89.28,89.28,89.28,95.33,95.33,101.58,101.58,128.56,143.25,143.25,158.72,209.91,183.42,174.99,183.42,166.76,135.81,135.81,174.99,183.42,174.99,158.72,150.88,150.88,150.88,158.72,158.72,183.42,192.05,166.76,166.76,166.76,166.76,166.76,158.72,158.72,158.72,158.72,158.72,150.88,150.88,150.88,150.88,150.88,150.88,150.88,150.88,158.72,158.72,158.72,166.76,166.76,166.76,166.76,166.76,166.76,174.99,174.99,183.42,174.99,183.42,174.99,174.99,174.99,183.42,192.05,219.13,192.05,183.42,183.42,183.42,183.42,192.05,192.05,200.88,200.88,209.91,209.91,219.13,228.56,238.18,258.02,268.24,289.27
101.58,108.03,114.68,121.52,108.03,121.52,128.56,114.68,101.58,108.03,121.52,166.76,158.72,158.72,108.03,89.28,89.28,89.28,95.33,101.58,95.33,108.03,121.52,135.81,128.56,135.81,200.88,200.88,174.99,158.72,183.42,158.72,128.56,143.25,143.25,166.76,143.25,143.25,143.25,150.88,150.88,150.88,150.88,166.76,192.05,166.76,166.76,166.76,166.76,158.72,158.72,158.72,158.72,150.88,150.88,150.88,150.88,143.25,143.25,143.25,143.25,150.88,150.88,150.88,150.88,158.72,158.72,158.72,158.72,158.72,158.72,166.76,166.76,174.99,183.42,183.42,174.99,174.99,174.99,174.99,183.42,200.88,192.05,183.42,174.99,174.99,183.42,183.42,192.05,192.05,200.88,209.91,209.91,209.91,219.13,228.56,228.56,238.18,258.02,300.08
101.58,121.52,128.56,114.68,108.03,114.68,135.81,121.52,114.68,114.68,128.56,135.81,108.03,89.28,83.43,83.43,83.43,83.43,89.28,95.33,95.33,95.33,101.58,108.03,114.68,135.81,166.76,174.99,174.99,150.88,183.42,158.72,121.52,128.56,143.25,150.88,135.81,143.25,143.25,143.25,150.88,150.88,150.88,158.72,192.05,166.76,158.72,158.72,158.72,158.72,150.88,150.88,150.88,150.88,150.88,150.88,143.25,143.25,143.25,143.25,143.25,143.25,143.25,143.25,150.88,150.88,150.88,150.88,158.72,158.72,158.72,166.76,166.76,166.76,174.99,166.76,166.76,166.76,166.76,166.76,183.42,183.42,174.99,174.99,174.99,174.99,183.42,183.42,192.05,192.05,200.88,200.88,209.91,219.13,219.13,228.56,238.18,248.0,278.65,289.27
108.03,114.68,114.68,114.68,108.03,114.68,128.56,143.25,143.25,128.56,143.25,108.03,77.77,77.77,83.43,83.43,83.43,83.43,89.28,89.28,89.28,89.28,89.28,101.58,108.03,121.52,150.88,166.76,158.72,143.25,183.42,158.72,128.56,121.52,135.81,143.25,135.81,135.81,143.25,143.25,143.25,150.88,166.76,183.42,174.99,158.72,158.72,150.88,150.88,150.88,150.88,150.88,150.88,143.25,143.25,143.25,143.25,143.25,135.81,143.25,135.81,143.25,143.25,143.25,143.25,143.25,150.88,150.88,150.88,158.72,158.72,158.72,158.72,166.76,166.76,166.76,166.76,166.76,166.76,174.99,183.42,174.99,166.76,166.76,174.99,174.99,183.42,183.42,192.05,192.05,200.88,200.88,219.13,219.13,228.56,238.18,238.18,258.02,311.09,268.24
114.68,114.68,121.52,121.52,114.68,128.56,143.25,166.76,150.88,143.25,174.99,108.03,77.77,77.77,77.77,83.43,83.43,83.43,83.43,83.43,83.43,83.43,89.28,95.33,101.58,121.52,143.25,166.76,143.25,158.72,183.42,166.76,135.81,128.56,128.56,135.81,135.81,135.81,135.81,135.81,143.25,174.99,174.99,174.99,183.42,158.72,150.88,150.88,150.88,150.88,143.25,143.25,143.25,143.25,143.25,143.25,143.25,135.81,135.81,143.25,135.81,135.81,135.81,135.81,143.25,143.25,143.25,150.88,150.88,150.88,158.72,158.72,158.72,158.72,158.72,158.72,158.72,158.72,166.76,166.76,166.76,166.76,166.76,166.76,166.76,174.99,183.42,183.42,192.05,200.88,209.91,219.13,228.56,248.0,248.0,268.24,258.02,278.65,333.71,311.09
114.68,121.52,128.56,128.56,128.56,143.25,166.76,183.42,166.76,158.72,192.05,114.68,83.43,77.77,77.77,83.43,83.43,83.43,83.43,77.77,83.43,83.43,83.43,89.28,95.33,114.68,143.25,150.88,135.81,158.72,183.42,166.76,143.25,128.56,128.56,143.25,143.25,135.81,135.81,135.81,150.88,174.99,174.99,150.88,158.72,150.88,150.88,143.25,143.25,143.25,143.25,143.25,143.25,143.25,135.81,135.81,143.25,135.81,135.81,143.25,135.81,135.81,135.81,135.81,143.25,143.25,143.25,143.25,150.88,150.88,158.72,158.72,158.72,150.88,158.72,158.72,158.72,158.72,158.72,158.72,158.72,158.72,158.72,166.76,166.76,174.99,174.99,183.42,192.05,200.88,219.13,228.56,248.0,268.24,289.27,322.3,289.27,311.09,289.27,406.32
114.68,121.52,128.56,135.81,135.81,158.72,192.05,200.88,200.88,174.99,143.25,135.81,108.03,83.43,77.77,77.77,83.43,77.77,83.43,83.43,77.77,77.77,83.43,89.28,108.03,121.52,135.81,135.81,135.81,150.88,166.76,166.76,143.25,128.56,128.56,128.56,135.81,135.81,128.56,150.88,150.88,150.88,158.72,143.25,143.25,143.25,143.25,143.25,143.25,143.25,135.81,135.81,135.81,135.81,135.81,135.81,143.25,135.81,128.56,135.81,128.56,135.81,135.81,135.81,135.81,143.25,143.25,143.25,143.25,158.72,158.72,150.88,150.88,150.88,150.88,158.72,158.72,158.72,150.88,150.88,158.72,158.72,158.72,166.76,166.76,174.99,174.99,183.42,192.05,200.88,219.13,238.18,258.02,289.27,322.3,357.12,322.3,345.32,369.12,369.12
121.52,135.81,135.81,135.81,150.88,158.72,174.99,200.88,158.72,158.72,158.72,150.88,128.56,95.33,77.77,83.43,83.43,83.43,77.77,83.43,77.77,83.43,89.28,101.58,114.68,128.56,121.52,128.56,143.25,150.88,174.99,158.72,143.25,135.81,128.56,121.52,121.52,121.52,121.52,121.52,128.56,135.81,128.56,135.81,135.81,135.81,135.81,135.81,135.81,135.81,135.81,135.81,135.81,135.81,143.25,135.81,128.56,128.56,128.56,128.56,128.56,128.56,128.56,135.81,135.81,135.81,143.25,143.25,143.25,150.88,143.25,150.88,150.88,150.88,150.88,150.88,158.72,150.88,150.88,150.88,150.88,158.72,158.72,166.76,174.99,174.99,183.42,183.42,192.05,200.88,219.13,238.18,268.24,300.08,357.12,393.73,432.12,381.33,445.31,432.12
121.52,135.81,135.81,143.25,158.72,166.76,183.42,183.42,158.72,143.25,135.81,135.81,143.25,108.03,89.28,83.43,77.77,77.77,77.77,83.43,83.43,83.43,89.28,95.33,101.58,114.68,121.52,135.81,150.88,158.72,174.99,166.76,158.72,128.56,121.52,121.52,121.52,128.56,121.52,121.52,121.52,128.56,135.81,135.81,135.81,135.81,135.81,135.81,135.81,135.81,135.81,135.81,135.81,135.81,143.25,135.81,128.56,128.56,121.52,128.56,128.56,128.56,128.56,128.56,135.81,135.81,135.81,135.81,143.25,143.25,143.25,143.25,150.88,150.88,150.88,150.88,150.88,150.88,150.88,150.88,150.88,158.72,158.72,166.76,174.99,174.99,183.42,192.05,192.05,200.88,219.13,238.18,268.24,345.32,357.12,381.33,458.7,432.12,472.29,472.29
121.52,128.56,135.81,143.25,158.72,174.99,192.05,166.76,158.72,174.99,158.72,150.88,143.25,108.03,101.58,95.33,77.77,77.77,77.77,77.77,83.43,83.43,95.33,101.58,108.03,121.52,135.81,143.25,166.76,174.99,183.42,158.72,143.25,128.56,114.68,114.68,114.68,114.68,128.56,135.81,135.81,128.56,143.25,135.81,135.81,135.81,135.81,135.81,128.56,135.81,150.88,150.88,150.88,128.56,121.52,121.52,121.52,121.52,121.52,121.52,121.52,128.56,128.56,128.56,128.56,128.56,135.81,135.81,143.25,143.25,143.25,143.25,143.25,143.25,150.88,158.72,158.72,143.25,143.25,150.88,150.88,158.72,166.76,166.76,174.99,183.42,192.05,192.05,200.88,209.91,219.13,248.0,289.27,369.12,406.32,406.32,432.12,500.07,514.25,528.64
114.68,121.52,135.81,150.88,158.72,183.42,200.88,183.42,209.91,192.05,166.76,150.88,135.81,108.03,114.68,108.03,77.77,77.77,77.77,77.77,89.28,95.33,101.58,114.68,128.56,143.25,158.72,158.72,166.76,174.99,150.88,143.25,143.25,121.52,114.68,114.68,114.68,114.68,114.68,128.56,135.81,135.81,143.25,128.56,128.56,128.56,128.56,128.56,143.25,143.25,135.81,150.88,135.81,121.52,121.52,121.52,121.52,121.52,121.52,121.52,121.52,121.52,128.56,128.56,128.56,128.56,135.81,135.81,135.81,143.25,143.25,143.25,143.25,143.25,143.25,150.88,150.88,143.25,143.25,150.88,150.88,158.72,158.72,166.76,174.99,183.42,192.05,192.05,200.88,209.91,219.13,238.18,258.02,322.3,369.12,419.12,445.31,543.22,572.98,603.53
108.03,121.52,135.81,150.88,174.99,192.05,200.88,192.05,209.91,183.42,183.42,183.42,135.81,108.03,101.58,89.28,77.77,77.77,77.77,83.43,89.28,101.58,108.03,121.52,143.25,158.72,174.99,174.99,166.76,174.99,143.25,121.52,121.52,114.68,114.68,114.68,114.68,108.03,108.03,121.52,135.81,121.52,121.52,128.56,128.56,128.56,128.56,128.56,128.56,150.88,128.56,121.52,121.52,114.68,114.68,114.68,114.68,121.52,121.52,121.52,121.52,121.52,121.52,121.52,128.56,128.56,128.56,135.81,135.81,135.81,135.81,135.81,135.81,143.25,143.25,143.25,143.25,143.25,143.25,150.88,150.88,158.72,158.72,166.76,174.99,183.42,183.42,200.88,209.91,228.56,238.18,248.0,278.65,268.24,357.12,357.12,406.32,458.7,588.16,634.88
108.03,121.52,135.81,158.72,174.99,192.05,183.42,174.99,158.72,158.72,166.76,143.25,108.03,95.33,89.28,89.28,83.43,77.77,89.28,89.28,95.33,114.68,135.81,128.56,128.56,150.88,158.72,166.76,158.72,150.88,128.56,114.68,108.03,108.03,108.03,108.03,108.03,121.52,128.56,114.68,108.03,108.03,114.68,114.68,121.52,121.52,128.56,128.56,128.56,135.81,121.52,121.52,114.68,114.68,114.68,114.68,114.68,114.68,114.68,121.52,121.52,121.52,121.52,121.52,128.56,135.81,135.81,143.25,135.81,135.81,135.81,135.81,135.81,143.25,143.25,143.25,143.25,143.25,143.25,150.88,158.72,158.72,158.72,166.76,174.99,174.99,183.42,200.88,219.13,238.18,258.02,289.27,369.12,369.12,289.27,381.33,458.7,486.08,572.98,650.85
108.03,114.68,143.25,174.99,192.05,192.05,200.88,183.42,174.99,143.25,121.52,108.03,95.33,89.28,95.33,89.28,101.58,77.77,89.28,95.33,108.03,121.52,143.25,150.88,143.25,158.72,166.76,158.72,143.25,128.56,114.68,108.03,108.03,101.58,101.58,108.03,108.03,108.03,101.58,101.58,108.03,108.03,114.68,114.68,114.68,128.56,128.56,114.68,114.68,114.68,108.03,114.68,114.68,114.68,114.68,114.68,114.68,114.68,114.68,114.68,114.68,114.68,121.52,121.52,121.52,135.81,143.25,150.88,135.81,135.81,135.81,135.81,135.81,135.81,135.81,135.81,143.25,143.25,143.25,150.88,158.72,158.72,166.76,166.76,166.76,174.99,183.42,200.88,228.56,248.0,289.27,322.3,419.12,432.12,300.08,357.12,381.33,381.33,543.22,650.85
101.58,108.03,128.56,150.88,158.72,174.99,192.05,158.72,143.25,121.52,108.03,95.33,89.28,89.28,89.28,95.33,95.33,83.43,95.33,108.03,128.56,143.25,150.88,158.72,158.72,166.76,166.76,150.88,150.88,128.56,121.52,101.58,101.58,101.58,101.58,101.58,108.03,101.58,101.58,101.58,108.03,108.03,114.68,114.68,114.68,121.52,114.68,108.03,108.03,108.03,108.03,108.03,108.03,108.03,108.03,114.68,114.68,114.68,114.68,114.68,114.68,114.68,114.68,121.52,128.56,135.81,128.56,128.56,128.56,128.56,128.56,135.81,135.81,135.81,135.81,135.81,143.25,143.25,150.88,150.88,158.72,158.72,166.76,166.76,166.76,174.99,183.42,209.91,248.0,278.65,322.3,345.32,406.32,406.32,432.12,393.73,406.32,445.31,572.98,634.88
95.33,101.58,114.68,121.52,135.81,158.72,174.99,158.72,128.56,108.03,101.58,95.33,89.28,83.43,89.28,95.33,89.28,95.33,101.58,121.52,128.56,150.88,166.76,166.76,174.99,183.42,158.72,158.72,158.72,143.25,143.25,108.03,101.58,101.58,101.58,101.58,101.58,101.58,108.03,108.03,108.03,108.03,108.03,108.03,114.68,114.68,108.03,101.58,101.58,108.03,108.03,108.03,108.03,108.03,114.68,114.68,114.68,114.68,114.68,114.68,121.52,121.52,121.52,121.52,135.81,135.81,128.56,128.56,128.56,128.56,128.56,128.56,135.81,135.81,135.81,135.81,143.25,143.25,150.88,150.88,158.72,166.76,166.76,174.99,174.99,183.42,192.05,219.13,248.0,322.3,393.73,432.12,500.07,445.31,381.33,486.08,572.98,393.73,472.29,634.88
89.28,95.33,101.58,114.68,121.52,143.25,183.42,143.25,108.03,95.33,95.33,83.43,89.28,89.28,89.28,89.28,95.33,101.58,114.68,135.81,143.25,158.72,174.99,174.99,174.99,174.99,174.99,150.88,128.56,114.68,108.03,95.33,95.33,95.33,95.33,101.58,95.33,101.58,101.58,101.58,101.58,108.03,114.68,114.68,114.68,114.68,108.03,101.58,101.58,101.58,108.03,108.03,108.03,108.03,108.03,114.68,114.68,114.68,114.68,114.68,121.52,121.52,121.52,121.52,121.52,128.56,121.52,128.56,128.56,128.56,128.56,128.56,128.56,135.81,135.81,143.25,143.25,150.88,150.88,158.72,158.72,166.76,174.99,174.99,183.42,183.42,200.88,219.13,248.0,333.71,558.0,558.0,500.07,472.29,406.32,603.53,619.11,500.07,500.07,683.39
83.43,83.43,89.28,101.58,108.03,128.56,183.42,121.52,108.03,89.28,89.28,89.28,83.43,89.28,89.28,95.33,101.58,121.52,143.25,174.99,143.25,143.25,143.25,150.88,158.72,166.76,183.42,150.88,121.52,101.58,95.33,95.33,95.33,95.33,95.33,95.33,95.33,95.33,101.58,114.68,121.52,121.52,108.03,121.52,108.03,108.03,101.58,101.58,101.58,101.58,101.58,108.03,128.56,114.68,114.68,114.68,114.68,114.68,121.52,121.52,121.52,121.52,121.52,121.52,121.52,121.52,121.52,121.52,128.56,128.56,128.56,128.56,128.56,135.81,135.81,143.25,143.25,150.88,150.88,158.72,166.76,166.76,174.99,183.42,183.42,192.05,200.88,219.13,248.0,322.3,543.22,683.39,650.85,514.25,472.29,572.98,683.39,634.88,699.96,785.76
77.77,72.32,77.77,89.28,95.33,101.58,121.52,121.52,95.33,95.33,95.33,101.58,95.33,101.58,108.03,108.03,108.03,114.68,128.56,128.56,128.56,150.88,150.88,150.88,166.76,158.72,166.76,128.56,108.03,95.33,95.33,95.33,95.33,95.33,95.33,95.33,95.33,95.33,108.03,114.68,121.52,114.68,101.58,101.58,101.58,101.58,101.58,101.58,108.03,108.03,108.03,108.03,128.56,128.56,128.56,135.81,128.56,121.52,121.52,121.52,121.52,121.52,121.52,121.52,121.52,121.52,121.52,121.52,128.56,128.56,128.56,128.56,128.56,135.81,135.81,143.25,143.25,150.88,150.88,158.72,166.76,174.99,174.99,183.42,192.05,200.88,200.88,209.91,248.0,333.71,500.07,895.28,895.28,699.96,603.53,634.88,634.88,699.96,699.96,839.63
62.0,67.06,72.32,77.77,77.77,83.43,89.28,108.03,121.52,108.03,114.68,121.52,135.81,121.52,128.56,114.68,121.52,121.52,114.68,121.52,143.25,166.76,174.99,183.42,166.76,128.56,114.68,95.33,89.28,89.28,89.28,95.33,89.28,89.28,95.33,89.28,95.33,95.33,108.03,128.56,114.68,95.33,95.33,95.33,101.58,101.58,108.03,108.03,114.68,114.68,114.68,114.68,121.52,150.88,166.76,166.76,158.72,135.81,135.81,128.56,128.56,128.56,128.56,128.56,128.56,128.56,128.56,128.56,128.56,128.56,128.56,128.56,128.56,135.81,135.81,135.81,143.25,143.25,158.72,166.76,166.76,183.42,192.05,192.05,209.91,219.13,219.13,219.13,219.13,278.65,472.29,619.11,857.98,857.98,634.88,572.98,558.0,603.53,750.85,876.53
57.14,62.0,67.06,72.32,77.77,83.43,89.28,95.33,108.03,128.56,135.81,135.81,174.99,158.72,135.81,135.81,135.81,143.25,128.56,128.56,135.81,158.72,192.05,150.88,135.81,108.03,95.33,89.28,89.28,89.28,89.28,89.28,89.28,95.33,89.28,95.33,108.03,114.68,114.68,121.52,101.58,95.33,95.33,101.58,108.03,108.03,114.68,121.52,121.52,121.52,121.52,121.52,128.56,143.25,166.76,192.05,183.42,158.72,150.88,135.81,128.56,128.56,128.56,128.56,128.56,128.56,128.56,128.56,135.81,135.81,135.81,135.81,135.81,135.81,135.81,143.25,150.88,158.72,174.99,183.42,192.05,192.05,209.91,219.13,228.56,238.18,238.18,258.02,289.27,238.18,268.24,322.3,458.7,634.88,683.39,667.02,543.22,558.0,750.85,876.53
57.14,62.0,67.06,72.32,83.43,89.28,101.58,108.03,108.03,128.56,143.25,150.88,166.76,192.05,158.72,158.72,166.76,158.72,143.25,135.81,135.81,143.25,200.88,150.88,128.56,108.03,95.33,83.43,83.43,83.43,89.28,95.33,89.28,89.28,89.28,101.58,108.03,108.03,95.33,95.33,95.33,95.33,101.58,114.68,114.68,121.52,143.25,192.05,128.56,128.56,121.52,128.56,135.81,143.25,174.99,209.91,192.05,158.72,135.81,128.56,135.81,128.56,128.56,135.81,135.81,135.81,135.81,135.81,135.81,135.81,135.81,135.81,135.81,135.81,143.25,158.72,166.76,183.42,192.05,200.88,209.91,219.13,228.56,238.18,248.0,268.24,258.02,289.27,345.32,248.0,248.0,333.71,369.12,603.53,750.85,750.85,500.07,528.64,733.68,650.85
62.0,72.32,77.77,89.28,95.33,108.03,143.25,128.56,114.68,121.52,143.25,166.76,174.99,192.05,200.88,183.42,183.42,183.42,158.72,143.25,143.25,183.42,200.88,174.99,174.99,108.03,83.43,83.43,83.43,83.43,89.28,83.43,83.43,89.28,89.28,95.33,95.33,89.28,89.28,95.33,95.33,114.68,114.68,121.52,128.56,143.25,166.76,183.42,143.25,143.25,135.81,135.81,143.25,143.25,158.72,183.42,174.99,158.72,135.81,135.81,135.81,135.81,135.81,135.81,135.81,135.81,135.81,143.25,143.25,135.81,135.81,143.25,143.25,143.25,158.72,166.76,183.42,200.88,209.91,219.13,228.56,248.0,268.24,300.08,300.08,300.08,289.27,333.71,345.32,278.65,258.02,268.24,300.08,458.7,514.25,528.64,514.25,432.12,472.29,667.02
67.06,77.77,89.28,101.58,114.68,135.81,166.76,150.88,128.56,121.52,135.81,166.76,174.99,200.88,219.13,209.91,219.13,200.88,174.99,158.72,143.25,183.42,183.42,143.25,128.56,128.56,83.43,89.28,83.43,83.43,89.28,89.28,83.43,83.43,83.43,89.28,89.28,89.28,101.58,114.68,114.68,128.56,114.68,128.56,135.81,158.72,183.42,158.72,150.88,166.76,174.99,150.88,150.88,158.72,158.72,158.72,166.76,166.76,150.88,135.81,135.81,143.25,135.81,143.25,143.25,143.25,143.25,143.25,143.25,143.25,143.25,143.25,150.88,158.72,166.76,174.99,192.05,209.91,228.56,238.18,248.0,268.24,300.08,357.12,369.12,322.3,345.32,381.33,311.09,268.24,248.0,248.0,300.08,381.33,406.32,369.12,381.33,406.32,514.25,588.16
67.06,77.77,101.58,114.68,135.81,150.88,192.05,174.99,135.81,121.52,128.56,174.99,228.56,209.91,192.05,228.56,258.02,200.88,174.99,150.88,143.25,143.25,121.52,108.03,101.58,108.03,89.28,95.33,108.03,89.28,83.43,83.43,83.43,89.28,95.33,89.28,89.28,89.28,101.58,108.03,143.25,166.76,135.81,135.81,150.88,174.99,200.88,166.76,158.72,192.05,192.05,166.76,183.42,166.76,158.72,166.76,192.05,183.42,166.76,150.88,143.25,143.25,143.25,143.25,150.88,143.25,143.25,143.25,143.25,150.88,150.88,158.72,158.72,166.76,174.99,183.42,200.88,219.13,238.18,258.02,278.65,311.09,345.32,393.73,381.33,369.12,393.73,369.12,289.27,258.02,268.24,258.02,258.02,311.09,345.32,333.71,393.73,445.31,500.07,650.85
72.32,83.43,114.68,121.52,166.76,183.42,209.91,192.05,135.81,128.56,135.81,150.88,166.76,192.05,209.91,238.18,258.02,200.88,166.76,143.25,135.81,135.81,114.68,95.33,89.28,83.43,101.58,128.56,128.56,121.52,121.52,83.43,83.43,83.43,83.43,83.43,89.28,95.33,101.58,114.68,128.56,174.99,166.76,150.88,174.99,192.05,192.05,174.99,174.99,200.88,200.88,183.42,200.88,174.99,174.99,174.99,183.42,192.05,183.42,166.76,150.88,150.88,150.88,150.88,150.88,150.88,150.88,150.88,150.88,150.88,158.72,166.76,174.99,174.99,174.99,183.42,200.88,219.13,248.0,268.24,300.08,322.3,393.73,445.31,419.12,406.32,432.12,322.3,278.65,278.65,311.09,322.3,278.65,268.24,289.27,357.12,345.32,345.32,357.12,558.0
83.43,95.33,128.56,143.25,238.18,219.13,219.13,183.42,143.25,135.81,135.81,150.88,183.42,192.05,228.56,278.65,268.24,192.05,166.76,143.25,121.52,108.03,101.58,89.28,83.43,77.77,83.43,95.33,89.28,101.58,121.52,89.28,83.43,83.43,83.43,89.28,89.28,101.58,108.03,121.52,143.25,209.91,258.02,200.88,183.42,209.91,209.91,183.42,183.42,200.88,219.13,219.13,228.56,192.05,183.42,209.91,209.91,219.13,209.91,174.99,150.88,150.88,150.88,150.88,150.88,158.72,150.88,158.72,158.72,158.72,166.76,174.99,183.42,183.42,183.42,192.05,209.91,238.18,289.27,333.71,369.12,381.33,419.12,486.08,445.31,472.29,458.7,381.33,300.08,300.08,345.32,432.12,333.71,268.24,268.24,393.73,500.07,406.32,393.73,458.7
89.28,108.03,143.25,158.72,219.13,238.18,209.91,192.05,150.88,143.25,128.56,150.88,209.91,238.18,248.0,238.18,228.56,219.13,192.05,143.25,121.52,108.03,101.58,89.28,83.43,77.77,83.43,89.28,77.77,89.28,83.43,83.43,83.43,83.43,89.28,89.28,95.33,108.03,121.52,128.56,150.88,228.56,258.02,278.65,219.13,209.91,209.91,209.91,209.91,200.88,228.56,248.0,258.02,209.91,200.88,219.13,248.0,248.0,219.13,183.42,158.72,158.72,158.72,158.72,158.72,158.72,158.72,166.76,158.72,166.76,174.99,183.42,183.42,192.05,200.88,209.91,228.56,258.02,322.3,458.7,445.31,458.7,486.08,543.22,543.22,528.64,445.31,357.12,322.3,311.09,345.32,369.12,369.12,300.08,278.65,322.3,458.7,500.07,445.31,419.12
95.33,114.68,158.72,174.99,228.56,278.65,248.0,209.91,192.05,150.88,143.25,150.88,183.42,268.24,248.0,200.88,200.88,228.56,174.99,135.81,108.03,101.58,95.33,83.43,83.43,83.43,83.43,83.43,83.43,83.43,83.43,83.43,83.43,83.43,89.28,95.33,101.58,108.03,121.52,135.81,166.76,219.13,238.18,268.24,219.13,200.88,200.88,228.56,228.56,209.91,238.18,258.02,238.18,209.91,228.56,228.56,238.18,238.18,209.91,183.42,158.72,158.72,158.72,158.72,158.72,158.72,166.76,166.76,166.76,174.99,183.42,192.05,200.88,200.88,209.91,228.56,248.0,278.65,357.12,543.22,667.02,683.39,572.98,543.22,528.64,572.98,543.22,472.29,393.73,322.3,322.3,300.08,300.08,311.09,289.27,333.71,406.32,528.64,486.08,472.29
101.58,114.68,143.25,174.99,238.18,311.09,248.0,228.56,209.91,174.99,150.88,143.25,158.72,238.18,289.27,219.13,166.76,183.42,150.88,121.52,101.58,89.28,83.43,101.58,108.03,83.43,77.77,77.77,77.77,77.77,83.43,83.43,83.43,83.43,95.33,101.58,108.03,114.68,128.56,158.72,248.0,228.56,268.24,219.13,192.05,192.05,209.91,238.18,238.18,219.13,228.56,258.02,238.18,228.56,238.18,248.0,248.0,248.0,228.56,192.05,166.76,158.72,158.72,166.76,166.76,166.76,174.99,174.99,174.99,174.99,183.42,200.88,209.91,219.13,228.56,238.18,258.02,289.27,369.12,603.53,857.98,603.53,528.64,500.07,500.07,528.64,514.25,528.64,432.12,381.33,345.32,381.33,311.09,311.09,311.09,333.71,393.73,588.16,667.02,514.25
101.58,114.68,135.81,183.42,278.65,300.08,289.27,248.0,209.91,200.88,158.72,135.81,143.25,166.76,183.42,192.05,158.72,150.88,128.56,108.03,95.33,89.28,89.28,101.58,89.28,77.77,77.77,77.77,77.77,77.77,77.77,89.28,89.28,83.43,89.28,108.03,135.81,128.56,135.81,174.99,200.88,248.0,238.18,192.05,183.42,200.88,209.91,228.56,248.0,248.0,238.18,278.65,278.65,248.0,268.24,258.02,228.56,238.18,219.13,200.88,166.76,166.76,166.76,166.76,166.76,174.99,174.99,183.42,183.42,183.42,192.05,200.88,209.91,228.56,238.18,248.0,268.24,300.08,357.12,472.29,634.88,619.11,528.64,472.29,543.22,558.0,588.16,486.08,432.12,393.73,432.12,369.12,357.12,357.12,322.3,322.3,369.12,472.29,634.88,650.85
114.68,121.52,135.81,209.91,300.08,322.3,300.08,258.02,219.13,209.91,174.99,143.25,128.56,135.81,174.99,183.42,143.25,150.88,135.81,108.03,95.33,89.28,89.28,77.77,72.32,77.77,77.77,77.77,77.77,77.77,77.77,89.28,89.28,83.43,95.33,114.68,128.56,174.99,183.42,158.72,174.99,219.13,219.13,183.42,174.99,183.42,192.05,209.91,228.56,248.0,238.18,278.65,300.08,278.65,268.24,258.02,219.13,209.91,200.88,192.05,183.42,166.76,166.76,166.76,174.99,174.99,183.42,183.42,183.42,192.05,192.05,209.91,219.13,228.56,248.0,258.02,268.24,300.08,357.12,432.12,558.0,528.64,528.64,472.29,432.12,486.08,558.0,558.0,558.0,419.12,500.07,472.29,357.12,345.32,345.32,333.71,381.33,486.08,543.22,750.85
128.56,143.25,174.99,289.27,311.09,322.3,278.65,248.0,209.91,192.05,166.76,150.88,121.52,135.81,158.72,174.99,174.99,166.76,128.56,101.58,89.28,77.77,72.32,72.32,83.43,77.77,83.43,114.68,135.81,101.58,77.77,83.43,83.43,83.43,95.33,114.68,158.72,209.91,166.76,158.72,158.72,174.99,183.42,183.42,166.76,174.99,183.42,192.05,209.91,238.18,268.24,268.24,278.65,300.08,311.09,268.24,228.56,219.13,209.91,183.42,183.42,174.99,174.99,174.99,174.99,183.42,183.42,183.42,192.05,192.05,200.88,209.91,219.13,238.18,248.0,268.24,278.65,311.09,357.12,432.12,486.08,486.08,472.29,432.12,458.7,514.25,528.64,603.53,785.76,683.39,733.68,634.88,458.7,393.73,357.12,345.32,393.73,500.07,733.68,785.76
143.25,166.76,268.24,333.71,311.09,311.09,258.02,248.0,200.88,174.99,158.72,143.25,121.52,150.88,219.13,166.76,209.91,192.05,121.52,95.33,77.77,72.32,72.32,72.32,95.33,77.77,89.28,121.52,135.81,101.58,83.43,77.77,83.43,95.33,101.58,128.56,192.05,200.88,150.88,143.25,143.25,150.88,158.72,158.72,174.99,183.42,192.05,200.88,209.91,238.18,248.0,278.65,300.08,311.09,289.27,258.02,238.18,238.18,209.91,192.05,183.42,174.99,174.99,174.99,183.42,183.42,192.05,192.05,192.05,200.88,200.88,209.91,219.13,228.56,258.02,289.27,289.27,300.08,333.71,406.32,381.33,381.33,381.33,432.12,445.31,500.07,558.0,634.88,667.02,839.63,1011.94,952.72,528.64,500.07,458.7,458.7,500.07,667.02,603.53,558.0
150.88,183.42,258.02,300.08,300.08,258.02,258.02,228.56,183.42,158.72,143.25,128.56,143.25,209.91,192.05,143.25,174.99,121.52,101.58,83.43,72.32,72.32,72.32,72.32,72.32,77.77,95.33,101.58,121.52,83.43,77.77,77.77,108.03,128.56,121.52,158.72,183.42,183.42,150.88,143.25,150.88,158.72,158.72,183.42,200.88,228.56,248.0,228.56,238.18,238.18,268.24,300.08,333.71,333.71,300.08,278.65,258.02,228.56,209.91,200.88,174.99,174.99,183.42,183.42,183.42,192.05,192.05,192.05,200.88,200.88,209.91,209.91,219.13,238.18,258.02,311.09,311.09,333.71,322.3,345.32,369.12,393.73,406.32,472.29,528.64,558.0,619.11,572.98,650.85,650.85,667.02,750.85,699.96,619.11,543.22,588.16,588.16,603.53,528.64,486.08
174.99,228.56,268.24,289.27,300.08,278.65,248.0,183.42,166.76,150.88,128.56,121.52,166.76,174.99,128.56,108.03,108.03,89.28,83.43,72.32,72.32,72.32,72.32,72.32,72.32,77.77,83.43,89.28,83.43,83.43,83.43,83.43,108.03,150.88,135.81,150.88,150.88,135.81,135.81,143.25,174.99,166.76,135.81,166.76,200.88,200.88,248.0,258.02,248.0,248.0,268.24,311.09,311.09,345.32,322.3,311.09,289.27,238.18,219.13,219.13,183.42,183.42,183.42,183.42,183.42,192.05,192.05,200.88,200.88,209.91,219.13,219.13,219.13,238.18,258.02,289.27,300.08,322.3,357.12,393.73,419.12,458.7,472.29,419.12,419.12,432.12,472.29,558.0,514.25,528.64,472.29,514.25,486.08,458.7,432.12,419.12,406.32,381.33,289.27,472.29
200.88,258.02,278.65,248.0,248.0,258.02,209.91,183.42,150.88,135.81,114.68,121.52,143.25,114.68,89.28,83.43,77.77,72.32,72.32,67.06,67.06,67.06,67.06,72.32,72.32,72.32,77.77,77.77,77.77,83.43,83.43,83.43,95.33,114.68,135.81,135.81,121.52,121.52,150.88,158.72,150.88,150.88,135.81,143.25,166.76,200.88,228.56,228.56,228.56,238.18,248.0,289.27,322.3,333.71,322.3,289.27,268.24,248.0,238.18,238.18,209.91,192.05,183.42,192.05,192.05,192.05,200.88,200.88,209.91,209.91,219.13,219.13,228.56,258.02,258.02,278.65,311.09,345.32,369.12,381.33,381.33,393.73,393.73,406.32,445.31,432.12,500.07,486.08,500.07,445.31,445.31,419.12,419.12,381.33,406.32,381.33,311.09,393.73,209.91,268.24
228.56,278.65,248.0,209.91,200.88,192.05,166.76,150.88,128.56,114.68,108.03,108.03,83.43,83.43,72.32,67.06,67.06,67.06,67.06,67.06,67.06,67.06,67.06,67.06,72.32,72.32,77.77,83.43,77.77,83.43,83.43,89.28,89.28,108.03,128.56,128.56,114.68,121.52,166.76,150.88,158.72,135.81,135.81,143.25,158.72,192.05,278.65,258.02,248.0,238.18,258.02,311.09,311.09,322.3,333.71,300.08,278.65,268.24,268.24,238.18,209.91,192.05,200.88,200.88,192.05,192.05,200.88,200.88,209.91,219.13,219.13,228.56,228.56,248.0,248.0,258.02,278.65,300.08,345.32,333.71,369.12,393.73,393.73,472.29,514.25,486.08,458.7,500.07,432.12,419.12,357.12,369.12,357.12,311.09,369.12,333.71,289.27,381.33,200.88,238.18
238.18,238.18,219.13,192.05,166.76,166.76,150.88,128.56,108.03,101.58,95.33,83.43,67.06,62.0,62.0,62.0,62.0,62.0,67.06,67.06,67.06,67.06,67.06,67.06,72.32,72.32,77.77,77.77,77.77,83.43,83.43,83.43,89.28,101.58,121.52,114.68,114.68,121.52,121.52,128.56,150.88,128.56,135.81,150.88,166.76,192.05,219.13,248.0,258.02,268.24,268.24,278.65,300.08,333.71,357.12,333.71,300.08,311.09,278.65,238.18,209.91,209.91,200.88,219.13,228.56,200.88,200.88,209.91,209.91,219.13,219.13,228.56,238.18,258.02,300.08,289.27,278.65,345.32,333.71,369.12,381.33,445.31,458.7,514.25,486.08,458.7,500.07,486.08,445.31,419.12,345.32,333.71,311.09,289.27,300.08,258.02,200.88,200.88,192.05,209.91
209.91,200.88,174.99,166.76,158.72,135.81,121.52,108.03,95.33,83.43,77.77,72.32,62.0,57.14,62.0,62.0,62.0,62.0,62.0,67.06,67.06,67.06,67.06,67.06,67.06,72.32,72.32,77.77,77.77,83.43,83.43,83.43,89.28,95.33,101.58,108.03,108.03,114.68,114.68,128.56,158.72,128.56,143.25,150.88,166.76,183.42,200.88,228.56,238.18,289.27,289.27,289.27,322.3,345.32,381.33,357.12,322.3,300.08,258.02,238.18,228.56,228.56,209.91,228.56,258.02,219.13,200.88,209.91,209.91,219.13,219.13,238.18,268.24,345.32,369.12,322.3,278.65,322.3,369.12,393.73,458.7,500.07,486.08,445.31,432.12,445.31,472.29,572.98,543.22,432.12,345.32,311.09,289.27,258.02,228.56,192.05,183.42,166.76,209.91,192.05
174.99,166.76,143.25,135.81,128.56,114.68,101.58,89.28,83.43,72.32,67.06,62.0,57.14,62.0,57.14,62.0,62.0,67.06,67.06,67.06,67.06,62.0,67.06,67.06,67.06,72.32,72.32,72.32,83.43,101.58,83.43,83.43,89.28,89.28,101.58,101.58,101.58,101.58,101.58,121.52,135.81,135.81,135.81,143.25,158.72,192.05,228.56,258.02,248.0,278.65,258.02,268.24,300.08,333.71,357.12,300.08,300.08,289.27,311.09,278.65,258.02,238.18,238.18,228.56,258.02,268.24,219.13,209.91,219.13,219.13,219.13,238.18,278.65,357.12,419.12,333.71,322.3,289.27,311.09,369.12,472.29,558.0,458.7,472.29,543.22,486.08,514.25,572.98,650.85,572.98,486.08,393.73,458.7,311.09,322.3,311.09,228.56,192.05,150.88,128.56
143.25,135.81,121.52,108.03,101.58,95.33,83.43,77.77,67.06,72.32,52.48,62.0,57.14,57.14,57.14,57.14,67.06,67.06,67.06,72.32,62.0,62.0,72.32,62.0,67.06,72.32,72.32,72.32,114.68,89.28,89.28,83.43,89.28,95.33,101.58,95.33,95.33,95.33,101.58,108.03,108.03,135.81,128.56,135.81,150.88,183.42,248.0,219.13,258.02,238.18,228.56,238.18,268.24,289.27,345.32,278.65,258.02,268.24,248.0,300.08,278.65,278.65,278.65,268.24,278.65,258.02,219.13,228.56,238.18,228.56,228.56,248.0,278.65,369.12,445.31,419.12,432.12,333.71,381.33,357.12,393.73,486.08,458.7,543.22,650.85,500.07,500.07,619.11,667.02,750.85,619.11,572.98,650.85,406.32,393.73,458.7,445.31,311.09,357.12,278.65
114.68,114.68,108.03,95.33,89.28,83.43,67.06,62.0,62.0,72.32,62.0,57.14,57.14,57.14,57.14,62.0,67.06,67.06,67.06,77.77,67.06,67.06,67.06,67.06,67.06,72.32,72.32,77.77,108.03,89.28,89.28,89.28,89.28,89.28,95.33,89.28,95.33,95.33,95.33,108.03,108.03,121.52,121.52,135.81,158.72,200.88,248.0,200.88,248.0,228.56,209.91,219.13,268.24,278.65,300.08,289.27,238.18,238.18,228.56,268.24,268.24,289.27,300.08,300.08,278.65,248.0,258.02,258.02,268.24,238.18,248.0,248.0,278.65,458.7,445.31,445.31,419.12,406.32,445.31,381.33,406.32,393.73,514.25,572.98,603.53,667.02,588.16,619.11,634.88,683.39,716.72,733.68,895.28,588.16,588.16,650.85,543.22,432.12,369.12,311.09
101.58,95.33,89.28,83.43,95.33,72.32,57.14,57.14,72.32,72.32,72.32,57.14,57.14,57.14,57.14,67.06,67.06,67.06,67.06,72.32,72.32,67.06,72.32,72.32,72.32,83.43,83.43,89.28,108.03,89.28,95.33,89.28,95.33,89.28,95.33,89.28,95.33,95.33,101.58,108.03,101.58,128.56,150.88,158.72,200.88,209.91,166.76,183.42,228.56,219.13,192.05,200.88,248.0,238.18,268.24,268.24,268.24,209.91,200.88,219.13,228.56,248.0,268.24,300.08,289.27,289.27,278.65,289.27,278.65,268.24,258.02,258.02,300.08,472.29,432.12,445.31,406.32,445.31,572.98,432.12,458.7,472.29,445.31,733.68,733.68,683.39,768.21,716.72,634.88,619.11,650.85,750.85,876.53,803.52,785.76,699.96,558.0,345.32,333.71,333.71
95.33,83.43,77.77,72.32,72.32,52.48,52.48,57.14,72.32,72.32,72.32,57.14,57.14,57.14,57.14,67.06,72.32,67.06,62.0,62.0,67.06,72.32,72.32,72.32,89.28,89.28,77.77,77.77,83.43,83.43,83.43,89.28,89.28,89.28,89.28,89.28,89.28,89.28,95.33,95.33,101.58,114.68,135.81,166.76,192.05,209.91,158.72,166.76,200.88,192.05,174.99,183.42,238.18,209.91,209.91,200.88,200.88,192.05,200.88,209.91,219.13,228.56,248.0,311.09,289.27,258.02,248.0,278.65,289.27,278.65,268.24,278.65,322.3,445.31,486.08,472.29,514.25,486.08,572.98,500.07,528.64,634.88,500.07,733.68,803.52,821.48,839.63,821.48,716.72,683.39,667.02,667.02,768.21,821.48,716.72,588.16,458.7,289.27,248.0,300.08
83.43,77.77,77.77,72.32,52.48,57.14,48.01,52.48,72.32,72.32,67.06,57.14,52.48,57.14,72.32,72.32,67.06,62.0,62.0,62.0,89.28,77.77,72.32,83.43,95.33,83.43,67.06,72.32,72.32,83.43,89.28,83.43,83.43,89.28,89.28,89.28,89.28,89.28,89.28,95.33,95.33,108.03,121.52,174.99,158.72,158.72,135.81,143.25,150.88,166.76,166.76,166.76,209.91,192.05,174.99,174.99,183.42,192.05,174.99,192.05,200.88,219.13,238.18,278.65,278.65,228.56,238.18,268.24,258.02,300.08,289.27,311.09,357.12,458.7,543.22,619.11,543.22,543.22,528.64,543.22,603.53,650.85,588.16,683.39,785.76,821.48,821.48,821.48,821.48,785.76,572.98,558.0,603.53,667.02,634.88,514.25,333.71,258.02,258.02,238.18
83.43,72.32,77.77,72.32,57.14,67.06,52.48,52.48,57.14,62.0,48.01,57.14,52.48,57.14,72.32,62.0,57.14,57.14,62.0,72.32,89.28,72.32,83.43,101.58,83.43,72.32,72.32,83.43,77.77,77.77,83.43,77.77,83.43,83.43,89.28,89.28,89.28,95.33,95.33,95.33,101.58,101.58,108.03,128.56,135.81,121.52,128.56,135.81,135.81,143.25,158.72,150.88,166.76,158.72,158.72,166.76,166.76,174.99,174.99,183.42,183.42,200.88,200.88,209.91,228.56,219.13,238.18,248.0,248.0,278.65,289.27,322.3,333.71,419.12,558.0,650.85,572.98,572.98,572.98,588.16,683.39,821.48,634.88,650.85,716.72,768.21,716.72,785.76,914.23,857.98,634.88,419.12,419.12,619.11,634.88,472.29,322.3,289.27,209.91,200.88
72.32,72.32,77.77,52.48,57.14,62.0,57.14,48.01,43.75,48.01,52.48,57.14,57.14,57.14,67.06,57.14,57.14,57.14,72.32,77.77,72.32,72.32,95.33,77.77,67.06,77.77,89.28,83.43,77.77,77.77,77.77,77.77,83.43,83.43,89.28,89.28,89.28,95.33,95.33,95.33,101.58,101.58,108.03,114.68,114.68,121.52,121.52,128.56,135.81,143.25,166.76,150.88,158.72,150.88,158.72,166.76,166.76,200.88,200.88,183.42,183.42,183.42,192.05,192.05,200.88,200.88,209.91,219.13,258.02,248.0,258.02,300.08,333.71,419.12,528.64,588.16,528.64,500.07,603.53,650.85,683.39,821.48,667.02,768.21,650.85,619.11,803.52,895.28,876.53,821.48,699.96,528.64,699.96,650.85,514.25,445.31,381.33,311.09,200.88,200.88
72.32,62.0,52.48,52.48,67.06,48.01,62.0,48.01,48.01,48.01,48.01,67.06,67.06,57.14,52.48,52.48,57.14,67.06,72.32,72.32,77.77,77.77,72.32,72.32,77.77,77.77,83.43,77.77,77.77,77.77,83.43,83.43,89.28,83.43,83.43,89.28,89.28,95.33,95.33,101.58,101.58,101.58,108.03,114.68,114.68,121.52,121.52,128.56,135.81,143.25,158.72,150.88,166.76,158.72,158.72,183.42,192.05,200.88,209.91,209.91,192.05,192.05,209.91,200.88,200.88,209.91,209.91,219.13,238.18,238.18,268.24,278.65,345.32,445.31,500.07,500.07,432.12,458.7,543.22,750.85,857.98,876.53,803.52,768.21,733.68,716.72,699.96,876.53,1032.08,914.23,895.28,857.98,895.28,821.48,650.85,486.08,419.12,268.24,219.13,143.25
62.0,57.14,62.0,62.0,62.0,62.0,48.01,48.01,43.75,52.48,52.48,67.06,72.32,67.06,57.14,48.01,52.48,67.06,67.06,83.43,89.28,67.06,72.32,72.32,77.77,77.77,77.77,77.77,77.77,77.77,77.77,83.43,83.43,83.43,83.43,89.28,89.28,89.28,95.33,95.33,101.58,101.58,108.03,108.03,114.68,121.52,121.52,128.56,143.25,135.81,143.25,183.42,278.65,174.99,158.72,174.99,219.13,228.56,258.02,228.56,200.88,192.05,209.91,219.13,200.88,209.91,209.91,219.13,228.56,228.56,238.18,248.0,289.27,357.12,322.3,381.33,381.33,458.7,619.11,952.72,1032.08,933.37,895.28,803.52,733.68,683.39,716.72,876.53,1093.68,1052.41,952.72,1052.41,1052.41,895.28,716.72,458.7,300.08,219.13,183.42,108.03
52.48,57.14,62.0,57.14,48.01,52.48,62.0,52.48,48.01,52.48,57.14,72.32,72.32,62.0,57.14,48.01,52.48,67.06,89.28,95.33,72.32,67.06,62.0,77.77,77.77,77.77,83.43,77.77,77.77,77.77,83.43,83.43,83.43,83.43,83.43,83.43,89.28,89.28,89.28,95.33,101.58,101.58,101.58,108.03,114.68,114.68,121.52,135.81,174.99,174.99,135.81,158.72,183.42,200.88,174.99,192.05,228.56,278.65,258.02,238.18,209.91,200.88,200.88,228.56,200.88,209.91,209.91,228.56,219.13,228.56,238.18,248.0,248.0,268.24,345.32,445.31,369.12,445.31,558.0,716.72,839.63,914.23,933.37,933.37,785.76,716.72,699.96,821.48,1052.41,1011.94,952.72,972.26,1032.08,895.28,733.68,528.64,419.12,121.52,67.06,77.77
48.01,52.48,48.01,48.01,52.48,52.48,57.14,52.48,48.01,52.48,67.06,62.0,52.48,57.14,48.01,52.48,67.06,77.77,101.58,83.43,67.06,67.06,67.06,83.43,83.43,95.33,72.32,77.77,77.77,77.77,83.43,83.43,83.43,83.43,83.43,83.43,83.43,89.28,89.28,95.33,101.58,101.58,101.58,108.03,108.03,114.68,114.68,128.56,174.99,200.88,135.81,166.76,158.72,166.76,174.99,192.05,228.56,278.65,268.24,258.02,228.56,209.91,219.13,238.18,200.88,200.88,209.91,238.18,228.56,228.56,228.56,258.02,268.24,268.24,300.08,300.08,311.09,369.12,445.31,543.22,699.96,821.48,895.28,914.23,839.63,803.52,750.85,785.76,839.63,914.23,1011.94,803.52,895.28,876.53,683.39,393.73,289.27,52.48,16.76,52.48
52.48,43.75,35.81,35.81,52.48,57.14,52.48,48.01,62.0,62.0,62.0,57.14,48.01,48.01,57.14,62.0,72.32,95.33,95.33,72.32,67.06,72.32,83.43,89.28,101.58,95.33,72.32,72.32,72.32,77.77,77.77,77.77,77.77,77.77,77.77,83.43,83.43,89.28,89.28,95.33,95.33,101.58,101.58,101.58,108.03,108.03,108.03,114.68,128.56,166.76,150.88,200.88,258.02,248.0,192.05,200.88,228.56,258.02,238.18,238.18,238.18,228.56,228.56,238.18,200.88,200.88,209.91,238.18,248.0,258.02,258.02,268.24,300.08,333.71,322.3,289.27,333.71,445.31,514.25,603.53,683.39,803.52,933.37,972.26,952.72,914.23,857.98,933.37,1072.95,1052.41,1093.68,733.68,716.72,876.53,650.85,393.73,192.05,28.67,19.44,62.0
52.48,48.01,48.01,48.01,35.81,52.48,48.01,48.01,57.14,57.14,43.75,43.75,43.75,57.14,67.06,67.06,77.77,101.58,83.43,62.0,72.32,72.32,77.77,101.58,114.68,83.43,72.32,67.06,72.32,72.32,72.32,72.32,72.32,77.77,77.77,83.43,83.43,83.43,89.28,89.28,95.33,101.58,101.58,101.58,101.58,101.58,101.58,121.52,128.56,135.81,183.42,228.56,289.27,268.24,192.05,200.88,228.56,268.24,268.24,268.24,289.27,258.02,248.0,228.56,209.91,209.91,209.91,219.13,268.24,289.27,322.3,333.71,345.32,458.7,458.7,322.3,289.27,369.12,458.7,619.11,750.85,785.76,857.98,933.37,972.26,933.37,1011.94,1052.41,1135.74,1135.74,1114.61,750.85,683.39,558.0,619.11,381.33,128.56,39.68,48.01,57.14
57.14,57.14,52.48,48.01,39.68,52.48,52.48,43.75,48.01,39.68,43.75,48.01,57.14,62.0,72.32,83.43,108.03,89.28,72.32,67.06,62.0,77.77,83.43,89.28,77.77,67.06,67.06,72.32,72.32,72.32,72.32,72.32,72.32,72.32,77.77,83.43,83.43,83.43,89.28,89.28,89.28,95.33,95.33,101.58,101.58,101.58,101.58,108.03,128.56,150.88,200.88,209.91,268.24,200.88,174.99,209.91,248.0,289.27,300.08,289.27,278.65,278.65,248.0,228.56,209.91,209.91,219.13,228.56,248.0,311.09,333.71,381.33,393.73,514.25,543.22,381.33,300.08,333.71,432.12,528.64,634.88,572.98,750.85,750.85,876.53,992.0,1072.95,1157.07,1222.25,1200.32,1135.74,733.68,558.0,311.09,543.22,333.71,101.58,62.0,72.32,35.81
32.14,57.14,32.14,35.81,39.68,43.75,48.01,43.75,39.68,35.81,43.75,57.14,62.0,67.06,83.43,89.28,101.58,77.77,67.06,72.32,72.32,83.43,83.43,89.28,67.06,67.06,72.32,67.06,67.06,67.06,72.32,72.32,72.32,72.32,77.77,77.77,83.43,83.43,83.43,89.28,89.28,89.28,95.33,95.33,95.33,95.33,101.58,108.03,128.56,150.88,150.88,200.88,268.24,192.05,158.72,174.99,200.88,248.0,248.0,278.65,268.24,278.65,238.18,219.13,209.91,219.13,219.13,228.56,248.0,322.3,472.29,381.33,369.12,393.73,432.12,406.32,333.71,369.12,357.12,406.32,472.29,572.98,543.22,572.98,750.85,839.63,1011.94,1114.61,1200.32,1093.68,1200.32,895.28,445.31,345.32,268.24,311.09,101.58,89.28,72.32,28.67
