NaN,NaN,NaN,NaN,NaN,NaN,NaN,NaN,NaN,NaN,NaN,NaN,NaN,NaN,NaN,NaN,NaN,NaN,NaN,NaN,NaN,NaN,NaN,NaN,NaN,NaN,NaN,NaN,NaN,NaN,NaN,NaN,NaN,NaN,NaN,NaN,NaN,NaN,NaN,NaN,NaN,NaN,NaN,NaN,NaN,NaN,NaN,NaN,NaN,NaN,NaN,NaN,NaN,NaN,NaN,NaN,NaN,NaN,NaN,NaN,NaN,NaN,NaN,NaN,NaN,NaN,NaN,NaN,NaN,NaN,NaN,NaN,NaN,NaN,NaN,NaN,NaN,NaN,NaN,NaN,NaN,NaN,NaN,NaN,NaN,NaN,NaN,NaN,NaN,14.28,48.01,77.77,67.06,57.14,43.75,62.0,72.32,48.01,28.67,0.4,NaN,NaN,6.35,0.4,1.59,4.86,14.28,43.75,48.01,62.0,83.43,89.28,135.81,128.56,114.68,166.76,238.18,322.3,357.12,393.73,381.33,333.71,311.09,289.27,268.24,278.65,289.27,300.08,322.3,381.33,432.12,432.12,445.31,514.25,472.29,514.25,500.07,543.22,572.98,500.07,514.25,514.25,500.07,514.25,486.08,500.07,381.33,322.3,258.02,289.27,345.32,311.09,258.02,300.08,200.88,150.88,158.72,192.05,258.02,278.65,311.09,345.32,322.3,357.12,357.12,345.32,345.32,345.32,333.71,300.08,278.65,258.02,228.56,209.91,200.88,183.42,166.76,150.88,135.81,135.81,166.76,200.88,219.13,228.56,228.56,228.56,238.18,248.0,248.0,248.0,258.02,268.24,248.0,248.0,258.02,248.0,238.18,228.56,228.56,219.13,228.56,238.18,228.56,238.18,228.56,219.13,219.13,219.13,228.56,228.56,228.56,248.0,238.18,238.18,248.0,258.02,278.65,278.65,289.27,258.02,228.56,183.42,192.05,200.88,200.88,166.76,166.76,183.42,209.91,192.05,219.13,209.91,200.88,166.76,174.99,192.05,183.42,192.05,174.99,166.76,166.76,174.99,183.42,192.05,150.88,108.03,57.14,32.14,22.32,22.32,16.76,16.76,16.76,14.28,9.92,8.04,2.48,1.59,NaN,NaN,0.4,0.89,NaN,NaN,NaN,NaN,NaN,NaN,NaN,NaN,NaN,NaN,NaN,NaN,NaN,NaN,0.89,3.57,8.04,14.28,19.44,25.4,28.67,32.14,39.68,43.75,48.01,52.48,57.14,67.06,72.32,83.43,89.28,101.58,114.68,121.52,135.81,143.25,150.88,166.76,183.42,166.76,174.99,200.88,209.91,219.13,228.56,228.56,238.18,289.27,333.71,333.71,458.7,543.22,733.68,634.88,528.64,486.08,528.64,500.07,472.29,650.85,839.63,209.91,95.33,77.77,NaN,NaN,NaN,NaN,NaN,NaN,NaN,NaN,NaN,NaN,NaN,NaN,NaN,NaN,NaN,NaN,NaN,NaN,NaN,NaN,NaN,NaN,NaN,NaN,NaN,NaN,NaN,NaN,NaN,NaN,NaN,NaN,NaN,NaN,NaN,NaN,NaN,NaN,NaN,NaN,NaN,NaN,NaN,NaN,NaN,NaN,NaN,NaN,NaN,NaN,NaN,NaN,NaN,NaN,NaN,NaN,NaN,NaN,NaN,NaN,NaN,NaN,NaN,NaN,NaN,NaN,NaN,NaN,NaN,NaN,NaN,NaN,NaN,NaN,NaN,NaN,NaN,NaN,NaN,NaN
NaN,NaN,NaN,NaN,NaN,NaN,NaN,NaN,NaN,NaN,NaN,NaN,NaN,NaN,NaN,NaN,NaN,NaN,NaN,NaN,NaN,NaN,NaN,NaN,NaN,NaN,NaN,NaN,NaN,NaN,NaN,NaN,NaN,NaN,NaN,NaN,NaN,NaN,NaN,NaN,NaN,NaN,NaN,NaN,NaN,NaN,NaN,NaN,NaN,NaN,NaN,NaN,NaN,NaN,NaN,NaN,NaN,NaN,NaN,NaN,NaN,NaN,NaN,NaN,NaN,NaN,NaN,NaN,NaN,NaN,NaN,NaN,NaN,NaN,NaN,NaN,NaN,NaN,NaN,NaN,NaN,NaN,NaN,NaN,NaN,NaN,NaN,NaN,0.89,19.44,72.32,143.25,143.25,128.56,72.32,62.0,77.77,57.14,35.81,9.92,NaN,NaN,1.59,6.35,0.89,6.35,12.0,19.44,43.75,83.43,83.43,72.32,135.81,83.43,101.58,143.25,200.88,248.0,289.27,406.32,432.12,406.32,300.08,258.02,238.18,248.0,278.65,289.27,278.65,311.09,381.33,419.12,458.7,543.22,543.22,500.07,543.22,572.98,588.16,472.29,603.53,528.64,572.98,543.22,528.64,514.25,445.31,333.71,333.71,486.08,472.29,486.08,406.32,268.24,150.88,183.42,183.42,174.99,228.56,278.65,322.3,333.71,300.08,333.71,357.12,357.12,381.33,369.12,333.71,311.09,311.09,278.65,258.02,238.18,228.56,200.88,166.76,174.99,183.42,143.25,143.25,192.05,228.56,238.18,228.56,228.56,248.0,258.02,258.02,258.02,258.02,248.0,248.0,248.0,238.18,238.18,228.56,228.56,228.56,219.13,219.13,228.56,219.13,219.13,209.91,219.13,238.18,228.56,219.13,228.56,238.18,228.56,228.56,238.18,268.24,268.24,268.24,258.02,268.24,268.24,258.02,228.56,200.88,219.13,200.88,192.05,192.05,200.88,209.91,209.91,238.18,228.56,183.42,200.88,209.91,228.56,228.56,209.91,200.88,192.05,174.99,200.88,209.91,219.13,166.76,89.28,57.14,39.68,32.14,32.14,25.4,22.32,22.32,19.44,16.76,12.0,8.04,0.89,NaN,NaN,NaN,NaN,NaN,NaN,NaN,NaN,NaN,NaN,NaN,NaN,NaN,NaN,NaN,NaN,NaN,NaN,1.59,3.57,9.92,14.28,19.44,25.4,32.14,35.81,43.75,48.01,52.48,57.14,62.0,67.06,77.77,83.43,95.33,101.58,114.68,128.56,135.81,150.88,166.76,174.99,192.05,183.42,192.05,209.91,238.18,258.02,248.0,268.24,258.02,289.27,322.3,369.12,381.33,572.98,572.98,543.22,472.29,514.25,514.25,619.11,650.85,699.96,733.68,369.12,268.24,101.58,NaN,NaN,NaN,NaN,NaN,NaN,NaN,NaN,NaN,NaN,NaN,NaN,NaN,NaN,NaN,NaN,NaN,NaN,NaN,NaN,NaN,NaN,NaN,NaN,NaN,NaN,NaN,NaN,NaN,NaN,NaN,NaN,NaN,NaN,NaN,NaN,NaN,NaN,NaN,NaN,NaN,NaN,NaN,NaN,NaN,NaN,NaN,NaN,NaN,NaN,NaN,NaN,NaN,NaN,NaN,NaN,NaN,NaN,NaN,NaN,NaN,NaN,NaN,NaN,NaN,NaN,NaN,NaN,NaN,NaN,NaN,NaN,NaN,NaN,NaN,NaN,NaN,NaN,NaN,NaN
NaN,NaN,NaN,NaN,NaN,NaN,NaN,NaN,NaN,NaN,NaN,NaN,NaN,NaN,NaN,NaN,NaN,NaN,NaN,NaN,NaN,NaN,NaN,NaN,NaN,NaN,NaN,NaN,NaN,NaN,NaN,NaN,NaN,NaN,NaN,NaN,NaN,NaN,NaN,NaN,NaN,NaN,NaN,NaN,NaN,NaN,NaN,NaN,NaN,NaN,NaN,NaN,NaN,NaN,NaN,NaN,NaN,NaN,NaN,NaN,NaN,NaN,NaN,NaN,NaN,NaN,NaN,NaN,NaN,NaN,NaN,NaN,NaN,NaN,NaN,NaN,NaN,NaN,NaN,NaN,NaN,NaN,NaN,NaN,NaN,NaN,NaN,NaN,14.28,43.75,101.58,150.88,166.76,150.88,121.52,89.28,62.0,43.75,32.14,14.28,0.0,NaN,3.57,12.0,16.76,9.92,14.28,25.4,32.14,43.75,52.48,83.43,83.43,77.77,83.43,108.03,150.88,192.05,289.27,369.12,432.12,486.08,393.73,322.3,238.18,357.12,300.08,268.24,289.27,300.08,369.12,393.73,432.12,458.7,472.29,458.7,514.25,558.0,528.64,528.64,572.98,543.22,572.98,486.08,486.08,486.08,419.12,381.33,458.7,486.08,369.12,268.24,228.56,192.05,166.76,166.76,200.88,183.42,219.13,248.0,258.02,278.65,289.27,322.3,345.32,369.12,406.32,393.73,357.12,322.3,311.09,278.65,258.02,238.18,219.13,200.88,174.99,183.42,200.88,166.76,150.88,174.99,219.13,228.56,238.18,238.18,238.18,248.0,248.0,248.0,248.0,238.18,238.18,228.56,219.13,228.56,219.13,219.13,219.13,219.13,209.91,209.91,219.13,219.13,228.56,238.18,248.0,248.0,238.18,228.56,219.13,228.56,238.18,248.0,248.0,248.0,248.0,258.02,258.02,289.27,300.08,278.65,238.18,238.18,228.56,238.18,228.56,228.56,238.18,248.0,268.24,258.02,209.91,228.56,238.18,248.0,238.18,228.56,228.56,209.91,183.42,219.13,238.18,150.88,108.03,95.33,135.81,83.43,48.01,39.68,35.81,32.14,28.67,25.4,22.32,16.76,12.0,4.86,0.0,NaN,NaN,NaN,NaN,NaN,NaN,NaN,NaN,NaN,NaN,NaN,NaN,NaN,NaN,NaN,NaN,0.4,0.89,4.86,9.92,14.28,19.44,28.67,35.81,39.68,48.01,52.48,57.14,62.0,67.06,72.32,83.43,95.33,101.58,108.03,121.52,135.81,143.25,150.88,158.72,174.99,192.05,200.88,200.88,219.13,238.18,258.02,268.24,289.27,311.09,345.32,381.33,445.31,445.31,619.11,699.96,558.0,528.64,634.88,768.21,785.76,933.37,733.68,733.68,472.29,716.72,192.05,NaN,NaN,NaN,NaN,NaN,NaN,NaN,NaN,NaN,NaN,NaN,NaN,NaN,NaN,NaN,NaN,NaN,NaN,NaN,NaN,NaN,NaN,NaN,NaN,NaN,NaN,NaN,NaN,NaN,NaN,NaN,NaN,NaN,NaN,NaN,NaN,NaN,NaN,NaN,NaN,NaN,NaN,NaN,NaN,NaN,NaN,NaN,NaN,NaN,NaN,NaN,NaN,NaN,NaN,NaN,NaN,NaN,NaN,NaN,NaN,NaN,NaN,NaN,NaN,NaN,NaN,NaN,NaN,NaN,NaN,NaN,NaN,NaN,NaN,NaN,NaN,NaN,NaN,NaN,NaN
NaN,NaN,NaN,NaN,NaN,NaN,NaN,NaN,NaN,NaN,NaN,NaN,NaN,NaN,NaN,NaN,NaN,NaN,NaN,NaN,NaN,NaN,NaN,NaN,NaN,NaN,NaN,NaN,NaN,NaN,NaN,NaN,NaN,NaN,NaN,NaN,NaN,NaN,NaN,NaN,NaN,NaN,NaN,NaN,NaN,NaN,NaN,NaN,NaN,NaN,NaN,NaN,NaN,NaN,NaN,NaN,NaN,NaN,NaN,NaN,NaN,NaN,NaN,NaN,NaN,NaN,NaN,NaN,NaN,NaN,NaN,NaN,NaN,NaN,NaN,NaN,NaN,NaN,NaN,NaN,NaN,NaN,NaN,NaN,NaN,NaN,NaN,NaN,35.81,83.43,158.72,174.99,183.42,174.99,135.81,89.28,62.0,39.68,16.76,4.86,4.86,NaN,4.86,22.32,48.01,32.14,16.76,22.32,28.67,39.68,43.75,52.48,62.0,67.06,83.43,108.03,114.68,128.56,166.76,333.71,486.08,486.08,528.64,458.7,322.3,333.71,345.32,268.24,278.65,278.65,369.12,369.12,472.29,458.7,432.12,445.31,543.22,528.64,572.98,588.16,514.25,514.25,500.07,432.12,432.12,432.12,345.32,369.12,381.33,381.33,345.32,289.27,238.18,200.88,166.76,166.76,209.91,200.88,238.18,268.24,300.08,333.71,333.71,333.71,333.71,369.12,381.33,381.33,381.33,345.32,322.3,278.65,289.27,228.56,192.05,183.42,192.05,200.88,192.05,166.76,158.72,174.99,209.91,219.13,238.18,238.18,238.18,228.56,238.18,248.0,238.18,228.56,228.56,228.56,228.56,228.56,228.56,228.56,219.13,209.91,209.91,219.13,228.56,238.18,238.18,238.18,238.18,238.18,248.0,238.18,228.56,228.56,228.56,228.56,248.0,248.0,258.02,268.24,258.02,278.65,289.27,311.09,289.27,278.65,268.24,258.02,248.0,268.24,289.27,300.08,289.27,289.27,248.0,258.02,289.27,268.24,238.18,258.02,258.02,258.02,228.56,209.91,209.91,158.72,200.88,158.72,135.81,83.43,62.0,57.14,48.01,39.68,35.81,32.14,28.67,19.44,12.0,6.35,0.89,0.0,0.0,NaN,NaN,NaN,NaN,NaN,NaN,NaN,NaN,NaN,NaN,NaN,NaN,NaN,NaN,0.89,1.59,4.86,12.0,16.76,22.32,28.67,35.81,43.75,48.01,52.48,62.0,67.06,72.32,77.77,89.28,95.33,108.03,114.68,121.52,135.81,150.88,166.76,166.76,174.99,192.05,209.91,238.18,209.91,248.0,268.24,289.27,300.08,311.09,381.33,432.12,458.7,514.25,572.98,634.88,558.0,667.02,699.96,821.48,895.28,1032.08,785.76,733.68,716.72,821.48,48.01,35.81,NaN,NaN,NaN,NaN,NaN,NaN,NaN,NaN,NaN,NaN,NaN,NaN,NaN,NaN,NaN,NaN,NaN,NaN,NaN,NaN,NaN,NaN,NaN,NaN,NaN,NaN,NaN,NaN,NaN,NaN,NaN,NaN,NaN,NaN,NaN,NaN,NaN,NaN,NaN,NaN,NaN,NaN,NaN,NaN,NaN,NaN,NaN,NaN,NaN,NaN,NaN,NaN,NaN,NaN,NaN,NaN,NaN,NaN,NaN,NaN,NaN,NaN,NaN,NaN,NaN,NaN,NaN,NaN,NaN,NaN,NaN,NaN,NaN,NaN,NaN,NaN,NaN,NaN,NaN
NaN,NaN,NaN,NaN,NaN,NaN,NaN,NaN,NaN,NaN,NaN,NaN,NaN,NaN,NaN,NaN,NaN,NaN,NaN,NaN,NaN,NaN,NaN,NaN,NaN,NaN,NaN,NaN,NaN,NaN,NaN,NaN,NaN,NaN,NaN,NaN,NaN,NaN,NaN,NaN,NaN,NaN,NaN,NaN,NaN,NaN,NaN,NaN,NaN,NaN,NaN,NaN,NaN,NaN,NaN,NaN,NaN,NaN,NaN,NaN,NaN,NaN,NaN,NaN,NaN,NaN,NaN,NaN,NaN,NaN,NaN,NaN,NaN,NaN,NaN,NaN,NaN,NaN,NaN,NaN,NaN,NaN,NaN,NaN,NaN,NaN,NaN,NaN,83.43,150.88,200.88,192.05,174.99,150.88,150.88,108.03,83.43,57.14,32.14,19.44,32.14,2.48,4.86,22.32,52.48,62.0,57.14,35.81,35.81,39.68,43.75,52.48,72.32,95.33,89.28,95.33,121.52,143.25,150.88,192.05,300.08,357.12,432.12,432.12,406.32,381.33,278.65,248.0,300.08,333.71,393.73,393.73,419.12,419.12,406.32,472.29,528.64,603.53,650.85,558.0,543.22,500.07,458.7,419.12,369.12,333.71,289.27,300.08,278.65,333.71,369.12,311.09,219.13,183.42,174.99,192.05,268.24,289.27,238.18,278.65,333.71,369.12,369.12,357.12,345.32,369.12,393.73,381.33,345.32,333.71,322.3,300.08,268.24,228.56,183.42,200.88,209.91,200.88,183.42,183.42,183.42,183.42,200.88,209.91,238.18,228.56,228.56,228.56,228.56,228.56,228.56,238.18,228.56,228.56,238.18,238.18,228.56,228.56,219.13,219.13,219.13,219.13,228.56,228.56,228.56,238.18,228.56,228.56,238.18,238.18,238.18,228.56,238.18,238.18,238.18,248.0,248.0,248.0,258.02,268.24,268.24,268.24,268.24,258.02,258.02,238.18,238.18,258.02,268.24,268.24,278.65,300.08,300.08,300.08,300.08,278.65,268.24,278.65,278.65,268.24,258.02,238.18,219.13,228.56,166.76,135.81,89.28,108.03,143.25,95.33,62.0,48.01,43.75,39.68,32.14,25.4,16.76,9.92,4.86,0.89,0.89,0.0,NaN,NaN,NaN,NaN,NaN,NaN,NaN,NaN,NaN,NaN,NaN,NaN,0.4,1.59,1.59,4.86,9.92,16.76,22.32,28.67,35.81,43.75,48.01,57.14,62.0,72.32,77.77,83.43,95.33,101.58,114.68,121.52,128.56,143.25,150.88,166.76,183.42,192.05,183.42,209.91,228.56,248.0,258.02,268.24,278.65,311.09,333.71,369.12,406.32,419.12,445.31,486.08,572.98,634.88,634.88,768.21,914.23,857.98,972.26,933.37,733.68,543.22,322.3,57.14,52.48,NaN,NaN,NaN,NaN,NaN,NaN,NaN,NaN,NaN,NaN,NaN,NaN,NaN,NaN,NaN,NaN,NaN,NaN,NaN,NaN,NaN,NaN,NaN,NaN,NaN,NaN,NaN,NaN,NaN,NaN,NaN,NaN,NaN,NaN,NaN,NaN,NaN,NaN,NaN,NaN,NaN,NaN,NaN,NaN,NaN,NaN,NaN,NaN,NaN,NaN,NaN,NaN,NaN,NaN,NaN,NaN,NaN,NaN,NaN,NaN,NaN,NaN,NaN,NaN,NaN,NaN,NaN,NaN,NaN,NaN,NaN,NaN,NaN,NaN,NaN,NaN,NaN,NaN,NaN
NaN,NaN,NaN,NaN,NaN,NaN,NaN,NaN,NaN,NaN,NaN,NaN,NaN,NaN,NaN,NaN,NaN,NaN,NaN,NaN,NaN,NaN,NaN,NaN,NaN,NaN,NaN,NaN,NaN,NaN,NaN,NaN,NaN,NaN,NaN,NaN,NaN,NaN,NaN,NaN,NaN,NaN,NaN,NaN,NaN,NaN,NaN,NaN,NaN,NaN,NaN,NaN,NaN,NaN,NaN,NaN,NaN,NaN,NaN,NaN,NaN,NaN,NaN,NaN,NaN,NaN,NaN,NaN,NaN,NaN,NaN,NaN,NaN,NaN,NaN,NaN,NaN,NaN,NaN,NaN,NaN,NaN,NaN,NaN,NaN,NaN,NaN,NaN,67.06,135.81,166.76,166.76,128.56,101.58,128.56,114.68,95.33,72.32,32.14,35.81,12.0,4.86,8.04,39.68,77.77,83.43,83.43,72.32,48.01,52.48,57.14,57.14,67.06,101.58,128.56,114.68,114.68,158.72,183.42,219.13,228.56,228.56,238.18,238.18,258.02,322.3,322.3,248.0,406.32,486.08,514.25,445.31,486.08,472.29,486.08,445.31,432.12,486.08,500.07,500.07,528.64,543.22,458.7,406.32,369.12,369.12,311.09,311.09,248.0,248.0,238.18,238.18,174.99,183.42,192.05,238.18,300.08,369.12,369.12,311.09,369.12,419.12,419.12,419.12,381.33,381.33,419.12,393.73,357.12,345.32,333.71,311.09,268.24,219.13,209.91,228.56,228.56,200.88,183.42,192.05,200.88,192.05,192.05,200.88,228.56,228.56,228.56,228.56,219.13,228.56,228.56,238.18,228.56,228.56,228.56,228.56,228.56,219.13,228.56,209.91,200.88,219.13,209.91,209.91,219.13,219.13,228.56,238.18,228.56,238.18,258.02,238.18,228.56,238.18,248.0,248.0,258.02,258.02,258.02,248.0,238.18,238.18,248.0,248.0,238.18,228.56,228.56,238.18,238.18,268.24,278.65,311.09,333.71,300.08,300.08,289.27,278.65,289.27,300.08,300.08,289.27,258.02,289.27,258.02,219.13,228.56,200.88,166.76,101.58,83.43,62.0,52.48,52.48,43.75,35.81,28.67,19.44,12.0,6.35,1.59,0.89,0.0,0.0,0.0,NaN,NaN,NaN,NaN,NaN,NaN,NaN,NaN,0.0,0.89,0.89,1.59,1.59,4.86,12.0,16.76,25.4,32.14,39.68,43.75,52.48,62.0,67.06,77.77,83.43,89.28,95.33,108.03,114.68,128.56,135.81,143.25,150.88,166.76,174.99,192.05,200.88,219.13,238.18,268.24,300.08,311.09,300.08,322.3,381.33,406.32,393.73,458.7,486.08,486.08,543.22,619.11,750.85,768.21,895.28,821.48,972.26,1011.94,768.21,486.08,174.99,72.32,8.04,6.35,NaN,NaN,NaN,NaN,NaN,NaN,NaN,NaN,NaN,NaN,NaN,NaN,NaN,NaN,NaN,NaN,NaN,NaN,NaN,NaN,NaN,NaN,NaN,NaN,NaN,NaN,NaN,NaN,NaN,NaN,NaN,NaN,NaN,NaN,NaN,NaN,NaN,NaN,NaN,NaN,NaN,NaN,NaN,NaN,NaN,NaN,NaN,NaN,NaN,NaN,NaN,NaN,NaN,NaN,NaN,NaN,NaN,NaN,NaN,NaN,NaN,NaN,NaN,NaN,NaN,NaN,NaN,NaN,NaN,NaN,NaN,NaN,NaN,NaN,NaN,NaN,NaN,NaN
NaN,NaN,NaN,NaN,NaN,NaN,NaN,NaN,NaN,NaN,NaN,NaN,NaN,NaN,NaN,NaN,NaN,NaN,NaN,NaN,NaN,NaN,NaN,NaN,NaN,NaN,NaN,NaN,NaN,NaN,NaN,NaN,NaN,NaN,NaN,NaN,NaN,NaN,NaN,NaN,NaN,NaN,NaN,NaN,NaN,NaN,NaN,NaN,NaN,NaN,NaN,NaN,NaN,NaN,NaN,NaN,NaN,NaN,NaN,NaN,NaN,NaN,NaN,NaN,NaN,NaN,NaN,NaN,NaN,NaN,NaN,NaN,NaN,NaN,NaN,NaN,NaN,NaN,NaN,NaN,NaN,NaN,NaN,NaN,NaN,NaN,NaN,NaN,28.67,83.43,121.52,108.03,77.77,57.14,67.06,77.77,101.58,67.06,35.81,19.44,14.28,14.28,14.28,43.75,72.32,101.58,101.58,108.03,77.77,77.77,83.43,62.0,72.32,95.33,135.81,158.72,166.76,174.99,209.91,219.13,219.13,228.56,183.42,183.42,192.05,192.05,209.91,278.65,228.56,393.73,486.08,472.29,458.7,393.73,357.12,419.12,486.08,432.12,445.31,458.7,500.07,486.08,486.08,445.31,419.12,406.32,369.12,322.3,258.02,238.18,209.91,192.05,183.42,209.91,238.18,278.65,333.71,406.32,381.33,369.12,432.12,458.7,445.31,419.12,406.32,406.32,393.73,369.12,357.12,357.12,333.71,278.65,258.02,228.56,248.0,248.0,238.18,209.91,209.91,200.88,200.88,192.05,200.88,200.88,209.91,209.91,219.13,219.13,228.56,228.56,228.56,228.56,228.56,228.56,228.56,228.56,219.13,219.13,209.91,200.88,200.88,200.88,238.18,219.13,219.13,219.13,228.56,228.56,228.56,238.18,258.02,268.24,238.18,238.18,238.18,248.0,248.0,258.02,248.0,238.18,228.56,228.56,228.56,228.56,228.56,228.56,228.56,238.18,248.0,278.65,300.08,311.09,311.09,289.27,278.65,268.24,258.02,278.65,300.08,311.09,311.09,289.27,300.08,322.3,258.02,258.02,209.91,166.76,135.81,101.58,72.32,62.0,57.14,48.01,35.81,28.67,19.44,14.28,8.04,4.86,2.48,0.89,0.4,0.89,0.89,0.4,0.0,NaN,0.0,0.0,0.0,0.89,0.89,1.59,4.86,4.86,8.04,4.86,9.92,16.76,22.32,32.14,35.81,43.75,52.48,62.0,72.32,83.43,89.28,95.33,101.58,108.03,114.68,128.56,135.81,150.88,158.72,174.99,174.99,183.42,200.88,219.13,248.0,300.08,345.32,369.12,381.33,406.32,369.12,406.32,419.12,472.29,500.07,528.64,558.0,634.88,699.96,683.39,683.39,716.72,803.52,933.37,650.85,572.98,311.09,121.52,19.44,2.48,NaN,NaN,NaN,NaN,NaN,NaN,NaN,NaN,NaN,NaN,NaN,NaN,NaN,NaN,NaN,NaN,NaN,NaN,NaN,NaN,NaN,NaN,NaN,NaN,NaN,NaN,NaN,NaN,NaN,NaN,NaN,NaN,NaN,NaN,NaN,NaN,NaN,NaN,NaN,NaN,NaN,NaN,NaN,NaN,NaN,NaN,NaN,NaN,NaN,NaN,NaN,NaN,NaN,NaN,NaN,NaN,NaN,NaN,NaN,NaN,NaN,NaN,NaN,NaN,NaN,NaN,NaN,NaN,NaN,NaN,NaN,NaN,NaN,NaN,NaN,NaN,NaN,NaN
NaN,NaN,NaN,NaN,NaN,NaN,NaN,NaN,NaN,NaN,NaN,NaN,NaN,NaN,NaN,NaN,NaN,NaN,NaN,NaN,NaN,NaN,NaN,NaN,NaN,NaN,NaN,NaN,NaN,NaN,NaN,NaN,NaN,NaN,NaN,NaN,NaN,NaN,NaN,NaN,NaN,NaN,NaN,NaN,NaN,NaN,NaN,NaN,NaN,NaN,NaN,NaN,NaN,NaN,NaN,NaN,NaN,NaN,NaN,NaN,NaN,NaN,NaN,NaN,NaN,NaN,NaN,NaN,NaN,NaN,NaN,NaN,NaN,NaN,NaN,NaN,NaN,NaN,NaN,NaN,NaN,NaN,NaN,NaN,NaN,NaN,NaN,NaN,6.35,39.68,72.32,52.48,43.75,32.14,35.81,57.14,95.33,52.48,39.68,35.81,39.68,25.4,14.28,48.01,89.28,101.58,95.33,95.33,108.03,83.43,62.0,57.14,67.06,89.28,114.68,143.25,174.99,228.56,258.02,238.18,200.88,200.88,166.76,174.99,158.72,150.88,166.76,278.65,289.27,300.08,486.08,345.32,300.08,311.09,369.12,406.32,393.73,393.73,432.12,458.7,445.31,472.29,458.7,432.12,406.32,381.33,357.12,311.09,228.56,200.88,200.88,209.91,238.18,278.65,311.09,322.3,357.12,393.73,406.32,406.32,419.12,419.12,419.12,432.12,419.12,419.12,419.12,393.73,357.12,333.71,322.3,289.27,248.0,268.24,268.24,278.65,248.0,219.13,228.56,200.88,192.05,192.05,200.88,209.91,209.91,209.91,200.88,209.91,209.91,228.56,228.56,228.56,228.56,228.56,228.56,219.13,219.13,219.13,200.88,200.88,192.05,192.05,238.18,219.13,209.91,228.56,228.56,228.56,228.56,228.56,248.0,248.0,228.56,228.56,248.0,248.0,248.0,238.18,228.56,228.56,228.56,219.13,219.13,228.56,228.56,228.56,228.56,238.18,238.18,248.0,268.24,289.27,278.65,278.65,278.65,258.02,258.02,268.24,311.09,300.08,311.09,322.3,311.09,228.56,183.42,166.76,192.05,219.13,166.76,108.03,83.43,72.32,62.0,52.48,43.75,32.14,25.4,19.44,12.0,9.92,6.35,3.57,1.59,2.48,3.57,4.86,3.57,0.89,0.0,0.0,0.0,0.89,1.59,2.48,4.86,9.92,9.92,4.86,12.0,16.76,22.32,32.14,39.68,48.01,57.14,67.06,72.32,83.43,95.33,101.58,108.03,114.68,114.68,128.56,150.88,158.72,174.99,183.42,200.88,209.91,228.56,228.56,238.18,268.24,289.27,393.73,406.32,445.31,406.32,406.32,472.29,528.64,528.64,572.98,619.11,683.39,667.02,634.88,667.02,667.02,699.96,716.72,432.12,472.29,543.22,219.13,12.0,1.59,NaN,NaN,NaN,NaN,NaN,NaN,NaN,NaN,NaN,NaN,NaN,NaN,NaN,NaN,NaN,NaN,NaN,NaN,NaN,NaN,NaN,NaN,NaN,NaN,NaN,NaN,NaN,NaN,NaN,NaN,NaN,NaN,NaN,NaN,NaN,NaN,NaN,NaN,NaN,NaN,NaN,NaN,NaN,NaN,NaN,NaN,NaN,NaN,NaN,NaN,NaN,NaN,NaN,NaN,NaN,NaN,NaN,NaN,NaN,NaN,NaN,NaN,NaN,NaN,NaN,NaN,NaN,NaN,NaN,NaN,NaN,NaN,NaN,NaN,NaN,NaN,NaN,NaN
NaN,NaN,NaN,NaN,NaN,NaN,NaN,NaN,NaN,NaN,NaN,NaN,NaN,NaN,NaN,NaN,NaN,NaN,NaN,NaN,NaN,NaN,NaN,NaN,NaN,NaN,NaN,NaN,NaN,NaN,NaN,NaN,NaN,NaN,NaN,NaN,NaN,NaN,NaN,NaN,NaN,NaN,NaN,NaN,NaN,NaN,NaN,NaN,NaN,NaN,NaN,NaN,NaN,NaN,NaN,NaN,NaN,NaN,NaN,NaN,NaN,NaN,NaN,NaN,NaN,NaN,NaN,NaN,NaN,NaN,NaN,NaN,NaN,NaN,NaN,NaN,NaN,NaN,NaN,NaN,NaN,NaN,NaN,NaN,NaN,NaN,NaN,NaN,12.0,32.14,32.14,19.44,12.0,16.76,39.68,48.01,67.06,62.0,52.48,39.68,32.14,43.75,22.32,25.4,52.48,62.0,77.77,89.28,83.43,57.14,43.75,52.48,72.32,101.58,108.03,143.25,183.42,200.88,228.56,228.56,209.91,174.99,150.88,135.81,128.56,135.81,174.99,219.13,268.24,289.27,300.08,278.65,289.27,300.08,311.09,322.3,345.32,419.12,406.32,419.12,445.31,486.08,458.7,406.32,369.12,345.32,322.3,311.09,278.65,248.0,258.02,268.24,322.3,357.12,393.73,393.73,381.33,393.73,419.12,432.12,419.12,406.32,406.32,419.12,432.12,445.31,406.32,369.12,345.32,311.09,311.09,289.27,258.02,278.65,289.27,268.24,248.0,228.56,238.18,219.13,200.88,200.88,200.88,228.56,248.0,238.18,228.56,219.13,219.13,209.91,209.91,209.91,219.13,219.13,219.13,219.13,219.13,219.13,200.88,200.88,192.05,192.05,209.91,228.56,209.91,219.13,219.13,228.56,228.56,228.56,228.56,228.56,219.13,219.13,228.56,238.18,228.56,219.13,219.13,219.13,219.13,219.13,219.13,219.13,219.13,219.13,228.56,228.56,238.18,238.18,248.0,268.24,268.24,258.02,258.02,258.02,258.02,238.18,268.24,268.24,278.65,258.02,219.13,183.42,183.42,166.76,150.88,135.81,108.03,83.43,72.32,72.32,62.0,52.48,43.75,35.81,28.67,22.32,16.76,12.0,9.92,6.35,3.57,4.86,9.92,14.28,19.44,9.92,0.89,2.48,0.4,1.59,2.48,4.86,8.04,22.32,19.44,8.04,12.0,19.44,25.4,32.14,43.75,48.01,57.14,67.06,77.77,89.28,95.33,108.03,114.68,121.52,128.56,135.81,143.25,158.72,183.42,200.88,200.88,228.56,268.24,268.24,268.24,268.24,278.65,369.12,472.29,500.07,445.31,500.07,458.7,514.25,619.11,650.85,683.39,683.39,634.88,619.11,619.11,650.85,667.02,768.21,768.21,228.56,219.13,278.65,57.14,14.28,NaN,NaN,NaN,NaN,NaN,NaN,NaN,NaN,NaN,NaN,NaN,NaN,NaN,NaN,NaN,NaN,NaN,NaN,NaN,NaN,NaN,NaN,NaN,NaN,NaN,NaN,NaN,NaN,NaN,NaN,NaN,NaN,NaN,NaN,NaN,NaN,NaN,NaN,NaN,NaN,NaN,NaN,NaN,NaN,NaN,NaN,NaN,NaN,NaN,NaN,NaN,NaN,NaN,NaN,NaN,NaN,NaN,NaN,NaN,NaN,NaN,NaN,NaN,NaN,NaN,NaN,NaN,NaN,NaN,NaN,NaN,NaN,NaN,NaN,NaN,NaN,NaN,NaN
NaN,NaN,NaN,NaN,NaN,NaN,NaN,NaN,NaN,NaN,NaN,NaN,NaN,NaN,NaN,NaN,NaN,NaN,NaN,NaN,NaN,NaN,NaN,NaN,NaN,NaN,NaN,NaN,NaN,NaN,NaN,NaN,NaN,NaN,NaN,NaN,NaN,NaN,NaN,NaN,NaN,NaN,NaN,NaN,NaN,NaN,NaN,NaN,NaN,NaN,NaN,NaN,NaN,NaN,NaN,NaN,NaN,NaN,NaN,NaN,NaN,NaN,NaN,NaN,NaN,NaN,NaN,NaN,NaN,NaN,NaN,NaN,NaN,NaN,NaN,NaN,NaN,NaN,NaN,NaN,NaN,NaN,NaN,NaN,NaN,NaN,NaN,NaN,6.35,8.04,4.86,6.35,6.35,16.76,35.81,48.01,57.14,67.06,62.0,57.14,57.14,48.01,48.01,43.75,25.4,57.14,89.28,62.0,43.75,39.68,48.01,62.0,72.32,89.28,121.52,128.56,150.88,174.99,219.13,183.42,192.05,183.42,166.76,135.81,121.52,135.81,158.72,183.42,209.91,200.88,209.91,228.56,268.24,311.09,322.3,369.12,458.7,445.31,406.32,406.32,445.31,472.29,445.31,406.32,369.12,393.73,357.12,406.32,278.65,300.08,311.09,311.09,345.32,381.33,406.32,393.73,393.73,406.32,393.73,406.32,406.32,406.32,419.12,419.12,419.12,445.31,419.12,393.73,357.12,322.3,289.27,278.65,268.24,289.27,268.24,248.0,228.56,228.56,228.56,238.18,209.91,209.91,200.88,209.91,248.0,258.02,258.02,258.02,248.0,228.56,219.13,219.13,219.13,209.91,209.91,209.91,209.91,209.91,200.88,200.88,192.05,192.05,219.13,238.18,209.91,209.91,219.13,219.13,219.13,238.18,228.56,228.56,209.91,209.91,209.91,219.13,219.13,209.91,209.91,209.91,209.91,209.91,209.91,209.91,219.13,219.13,228.56,228.56,228.56,238.18,248.0,248.0,248.0,268.24,278.65,268.24,258.02,228.56,228.56,228.56,228.56,209.91,192.05,166.76,166.76,128.56,128.56,114.68,121.52,101.58,83.43,72.32,62.0,52.48,43.75,32.14,28.67,22.32,16.76,14.28,14.28,12.0,12.0,8.04,9.92,12.0,25.4,12.0,6.35,8.04,6.35,8.04,8.04,8.04,8.04,19.44,14.28,9.92,14.28,19.44,28.67,32.14,39.68,48.01,57.14,67.06,77.77,89.28,95.33,108.03,128.56,135.81,143.25,143.25,158.72,166.76,183.42,200.88,219.13,238.18,248.0,289.27,289.27,322.3,406.32,333.71,472.29,500.07,528.64,543.22,500.07,528.64,603.53,667.02,699.96,667.02,619.11,634.88,619.11,619.11,650.85,785.76,803.52,228.56,16.76,62.0,12.0,4.86,NaN,NaN,NaN,NaN,NaN,NaN,NaN,NaN,NaN,NaN,NaN,NaN,NaN,NaN,NaN,NaN,NaN,NaN,NaN,NaN,NaN,NaN,NaN,NaN,NaN,NaN,NaN,NaN,NaN,NaN,NaN,NaN,NaN,NaN,NaN,NaN,NaN,NaN,NaN,NaN,NaN,NaN,NaN,NaN,NaN,NaN,NaN,NaN,NaN,NaN,NaN,NaN,NaN,NaN,NaN,NaN,NaN,NaN,NaN,NaN,NaN,NaN,NaN,NaN,NaN,NaN,NaN,NaN,NaN,NaN,NaN,NaN,NaN,NaN,NaN,NaN,NaN,NaN
NaN,NaN,NaN,NaN,NaN,NaN,NaN,NaN,NaN,NaN,NaN,NaN,NaN,NaN,NaN,NaN,NaN,NaN,NaN,NaN,NaN,NaN,NaN,NaN,NaN,NaN,NaN,NaN,NaN,NaN,NaN,NaN,NaN,NaN,NaN,NaN,NaN,NaN,NaN,NaN,NaN,NaN,NaN,NaN,NaN,NaN,NaN,NaN,NaN,NaN,NaN,NaN,NaN,NaN,NaN,NaN,NaN,NaN,NaN,NaN,NaN,NaN,NaN,NaN,NaN,NaN,NaN,NaN,NaN,NaN,NaN,NaN,NaN,NaN,NaN,NaN,NaN,NaN,NaN,NaN,NaN,NaN,NaN,NaN,NaN,NaN,NaN,NaN,NaN,NaN,6.35,16.76,39.68,48.01,72.32,83.43,77.77,77.77,77.77,67.06,52.48,57.14,83.43,77.77,35.81,39.68,77.77,67.06,39.68,43.75,57.14,62.0,83.43,95.33,101.58,121.52,150.88,174.99,200.88,174.99,143.25,135.81,128.56,143.25,143.25,135.81,158.72,200.88,183.42,258.02,311.09,289.27,278.65,357.12,419.12,445.31,406.32,369.12,381.33,419.12,432.12,445.31,458.7,432.12,419.12,445.31,369.12,393.73,268.24,345.32,357.12,345.32,357.12,381.33,381.33,393.73,393.73,406.32,393.73,381.33,381.33,393.73,419.12,419.12,419.12,419.12,432.12,406.32,381.33,357.12,333.71,311.09,300.08,289.27,258.02,248.0,238.18,238.18,228.56,238.18,219.13,209.91,209.91,209.91,248.0,258.02,258.02,258.02,258.02,248.0,248.0,248.0,238.18,228.56,209.91,209.91,219.13,219.13,209.91,200.88,200.88,200.88,228.56,248.0,219.13,209.91,209.91,209.91,209.91,219.13,219.13,219.13,200.88,200.88,200.88,209.91,200.88,200.88,200.88,209.91,209.91,219.13,219.13,219.13,219.13,219.13,228.56,228.56,228.56,238.18,248.0,248.0,268.24,278.65,311.09,278.65,248.0,248.0,238.18,219.13,219.13,209.91,192.05,174.99,192.05,166.76,166.76,150.88,128.56,101.58,83.43,67.06,48.01,43.75,35.81,32.14,28.67,25.4,22.32,19.44,19.44,19.44,16.76,14.28,12.0,14.28,28.67,28.67,22.32,22.32,22.32,14.28,9.92,9.92,9.92,14.28,14.28,12.0,16.76,22.32,28.67,32.14,39.68,48.01,57.14,67.06,77.77,89.28,114.68,143.25,174.99,183.42,174.99,158.72,166.76,183.42,200.88,219.13,228.56,258.02,268.24,289.27,322.3,406.32,381.33,369.12,381.33,393.73,419.12,472.29,514.25,603.53,683.39,716.72,733.68,716.72,667.02,667.02,667.02,619.11,667.02,716.72,750.85,311.09,57.14,14.28,NaN,NaN,NaN,NaN,NaN,NaN,NaN,NaN,NaN,NaN,NaN,NaN,NaN,NaN,NaN,NaN,NaN,NaN,NaN,NaN,NaN,NaN,NaN,NaN,NaN,NaN,NaN,NaN,NaN,NaN,NaN,NaN,NaN,NaN,NaN,NaN,NaN,NaN,NaN,NaN,NaN,NaN,NaN,NaN,NaN,NaN,NaN,NaN,NaN,NaN,NaN,NaN,NaN,NaN,NaN,NaN,NaN,NaN,NaN,NaN,NaN,NaN,NaN,NaN,NaN,NaN,NaN,NaN,NaN,NaN,NaN,NaN,NaN,NaN,NaN,NaN,NaN,NaN,NaN,NaN
NaN,NaN,NaN,NaN,NaN,NaN,NaN,NaN,NaN,NaN,NaN,NaN,NaN,NaN,NaN,NaN,NaN,NaN,NaN,NaN,NaN,NaN,NaN,NaN,NaN,NaN,NaN,NaN,NaN,NaN,NaN,NaN,NaN,NaN,NaN,NaN,NaN,NaN,NaN,NaN,NaN,NaN,NaN,NaN,NaN,NaN,NaN,NaN,NaN,NaN,NaN,NaN,NaN,NaN,NaN,NaN,NaN,NaN,NaN,NaN,NaN,NaN,NaN,NaN,NaN,NaN,NaN,NaN,NaN,NaN,NaN,NaN,NaN,NaN,NaN,NaN,NaN,NaN,NaN,NaN,NaN,NaN,NaN,NaN,NaN,NaN,NaN,NaN,NaN,4.86,35.81,39.68,62.0,83.43,114.68,114.68,121.52,95.33,89.28,72.32,77.77,77.77,83.43,67.06,43.75,39.68,39.68,43.75,67.06,67.06,48.01,57.14,72.32,77.77,108.03,135.81,135.81,143.25,143.25,158.72,150.88,114.68,108.03,114.68,121.52,128.56,158.72,200.88,183.42,238.18,357.12,432.12,445.31,393.73,445.31,406.32,432.12,369.12,393.73,406.32,419.12,458.7,445.31,419.12,432.12,406.32,333.71,322.3,322.3,369.12,381.33,369.12,381.33,381.33,419.12,419.12,419.12,419.12,393.73,393.73,381.33,406.32,381.33,381.33,419.12,432.12,432.12,406.32,381.33,357.12,357.12,345.32,333.71,300.08,278.65,258.02,248.0,238.18,228.56,228.56,228.56,209.91,209.91,219.13,248.0,258.02,258.02,248.0,258.02,248.0,238.18,248.0,238.18,248.0,219.13,219.13,209.91,209.91,219.13,209.91,200.88,209.91,258.02,268.24,228.56,219.13,209.91,200.88,209.91,209.91,209.91,209.91,200.88,200.88,200.88,200.88,200.88,200.88,200.88,209.91,219.13,219.13,228.56,228.56,228.56,228.56,228.56,228.56,228.56,238.18,238.18,258.02,278.65,300.08,322.3,278.65,258.02,258.02,268.24,268.24,248.0,219.13,200.88,183.42,219.13,219.13,200.88,166.76,158.72,135.81,95.33,67.06,52.48,48.01,43.75,35.81,28.67,28.67,32.14,28.67,25.4,25.4,22.32,19.44,14.28,16.76,25.4,35.81,39.68,35.81,48.01,22.32,14.28,14.28,12.0,16.76,16.76,12.0,16.76,22.32,28.67,32.14,39.68,48.01,57.14,67.06,72.32,83.43,121.52,174.99,174.99,192.05,174.99,166.76,166.76,183.42,200.88,228.56,238.18,248.0,268.24,300.08,357.12,486.08,381.33,357.12,369.12,393.73,419.12,458.7,500.07,667.02,750.85,803.52,821.48,768.21,699.96,699.96,716.72,619.11,634.88,650.85,619.11,619.11,458.7,143.25,NaN,NaN,NaN,NaN,NaN,NaN,NaN,NaN,NaN,NaN,NaN,NaN,NaN,NaN,NaN,NaN,NaN,NaN,NaN,NaN,NaN,NaN,NaN,NaN,NaN,NaN,NaN,NaN,NaN,NaN,NaN,NaN,NaN,NaN,NaN,NaN,NaN,NaN,NaN,NaN,NaN,NaN,NaN,NaN,NaN,NaN,NaN,NaN,NaN,NaN,NaN,NaN,NaN,NaN,NaN,NaN,NaN,NaN,NaN,NaN,NaN,NaN,NaN,NaN,NaN,NaN,NaN,NaN,NaN,NaN,NaN,NaN,NaN,NaN,NaN,NaN,NaN,NaN,NaN,NaN
NaN,NaN,NaN,NaN,NaN,NaN,NaN,NaN,NaN,NaN,NaN,NaN,NaN,NaN,NaN,NaN,NaN,NaN,NaN,NaN,NaN,NaN,NaN,NaN,NaN,NaN,NaN,NaN,NaN,NaN,NaN,NaN,NaN,NaN,NaN,NaN,NaN,NaN,NaN,NaN,NaN,NaN,NaN,NaN,NaN,NaN,NaN,NaN,NaN,NaN,NaN,NaN,NaN,NaN,NaN,NaN,NaN,NaN,NaN,NaN,NaN,NaN,NaN,NaN,NaN,NaN,NaN,NaN,NaN,NaN,NaN,NaN,NaN,NaN,NaN,NaN,NaN,NaN,NaN,NaN,NaN,NaN,NaN,NaN,NaN,NaN,NaN,2.48,9.92,25.4,43.75,62.0,83.43,114.68,143.25,150.88,128.56,114.68,95.33,95.33,95.33,95.33,89.28,72.32,77.77,72.32,67.06,57.14,77.77,77.77,62.0,57.14,67.06,72.32,89.28,121.52,121.52,114.68,114.68,114.68,128.56,108.03,108.03,128.56,135.81,128.56,150.88,174.99,166.76,238.18,278.65,333.71,268.24,268.24,357.12,406.32,369.12,381.33,381.33,393.73,419.12,432.12,419.12,393.73,381.33,345.32,300.08,333.71,381.33,381.33,369.12,369.12,393.73,393.73,393.73,393.73,381.33,393.73,393.73,393.73,369.12,406.32,406.32,393.73,393.73,432.12,445.31,419.12,381.33,357.12,333.71,333.71,322.3,311.09,278.65,268.24,258.02,248.0,238.18,238.18,238.18,219.13,209.91,219.13,238.18,238.18,228.56,228.56,228.56,219.13,219.13,228.56,238.18,238.18,219.13,219.13,228.56,219.13,209.91,209.91,200.88,219.13,268.24,289.27,248.0,228.56,219.13,209.91,209.91,209.91,209.91,200.88,200.88,200.88,200.88,200.88,200.88,200.88,209.91,219.13,219.13,228.56,228.56,228.56,228.56,228.56,228.56,228.56,228.56,238.18,238.18,258.02,289.27,300.08,322.3,300.08,278.65,268.24,268.24,278.65,268.24,248.0,238.18,209.91,200.88,228.56,238.18,192.05,174.99,135.81,83.43,67.06,62.0,62.0,57.14,43.75,39.68,35.81,39.68,39.68,35.81,32.14,28.67,25.4,19.44,19.44,32.14,35.81,39.68,52.48,57.14,32.14,19.44,16.76,16.76,16.76,16.76,16.76,16.76,22.32,28.67,35.81,39.68,48.01,57.14,62.0,72.32,83.43,101.58,135.81,166.76,192.05,183.42,200.88,200.88,192.05,192.05,209.91,228.56,258.02,289.27,300.08,322.3,472.29,432.12,472.29,445.31,406.32,458.7,458.7,528.64,650.85,803.52,895.28,857.98,768.21,699.96,667.02,716.72,634.88,603.53,572.98,406.32,667.02,588.16,278.65,57.14,57.14,28.67,NaN,NaN,NaN,NaN,NaN,NaN,NaN,NaN,NaN,NaN,NaN,NaN,NaN,NaN,NaN,NaN,NaN,NaN,NaN,NaN,NaN,NaN,NaN,NaN,NaN,NaN,NaN,NaN,NaN,NaN,NaN,NaN,NaN,NaN,NaN,NaN,NaN,NaN,NaN,NaN,NaN,NaN,NaN,NaN,NaN,NaN,NaN,NaN,NaN,NaN,NaN,NaN,NaN,NaN,NaN,NaN,NaN,NaN,NaN,NaN,NaN,NaN,NaN,NaN,NaN,NaN,NaN,NaN,NaN,NaN,NaN,NaN,NaN,NaN,NaN,NaN,NaN
NaN,NaN,NaN,NaN,NaN,NaN,NaN,NaN,NaN,NaN,NaN,NaN,NaN,NaN,NaN,NaN,NaN,NaN,NaN,NaN,NaN,NaN,NaN,NaN,NaN,NaN,NaN,NaN,NaN,NaN,NaN,NaN,NaN,NaN,NaN,NaN,NaN,NaN,NaN,NaN,NaN,NaN,NaN,NaN,NaN,NaN,NaN,NaN,NaN,NaN,NaN,NaN,NaN,NaN,NaN,NaN,NaN,NaN,NaN,NaN,NaN,NaN,NaN,NaN,NaN,NaN,NaN,NaN,NaN,NaN,NaN,NaN,NaN,NaN,NaN,NaN,NaN,NaN,NaN,NaN,NaN,NaN,NaN,NaN,NaN,NaN,9.92,32.14,48.01,57.14,72.32,83.43,101.58,128.56,158.72,174.99,158.72,128.56,108.03,121.52,128.56,121.52,95.33,89.28,114.68,101.58,95.33,67.06,72.32,83.43,83.43,62.0,72.32,83.43,72.32,83.43,89.28,95.33,89.28,89.28,95.33,95.33,114.68,166.76,166.76,143.25,143.25,150.88,166.76,268.24,322.3,209.91,258.02,357.12,322.3,322.3,333.71,357.12,369.12,381.33,406.32,419.12,406.32,381.33,369.12,345.32,300.08,369.12,381.33,369.12,357.12,369.12,393.73,369.12,381.33,369.12,369.12,369.12,381.33,369.12,369.12,393.73,406.32,406.32,406.32,432.12,445.31,419.12,393.73,369.12,345.32,322.3,300.08,289.27,278.65,268.24,258.02,248.0,258.02,268.24,228.56,219.13,209.91,209.91,228.56,219.13,209.91,209.91,209.91,219.13,228.56,219.13,219.13,219.13,219.13,238.18,248.0,228.56,209.91,209.91,209.91,219.13,258.02,289.27,289.27,258.02,228.56,219.13,209.91,209.91,219.13,200.88,200.88,200.88,200.88,192.05,200.88,200.88,200.88,209.91,219.13,219.13,219.13,219.13,219.13,219.13,228.56,228.56,228.56,228.56,238.18,248.0,268.24,278.65,300.08,300.08,289.27,289.27,268.24,289.27,268.24,258.02,238.18,209.91,209.91,248.0,278.65,258.02,209.91,128.56,83.43,77.77,72.32,83.43,72.32,57.14,48.01,43.75,48.01,48.01,43.75,39.68,35.81,32.14,25.4,25.4,22.32,22.32,32.14,57.14,62.0,39.68,22.32,19.44,19.44,19.44,19.44,19.44,19.44,22.32,28.67,35.81,43.75,52.48,57.14,67.06,77.77,89.28,101.58,128.56,150.88,209.91,238.18,238.18,248.0,209.91,209.91,219.13,238.18,248.0,300.08,322.3,345.32,486.08,528.64,619.11,543.22,419.12,486.08,500.07,543.22,667.02,839.63,895.28,821.48,733.68,667.02,619.11,650.85,634.88,619.11,650.85,699.96,369.12,432.12,514.25,419.12,19.44,258.02,89.28,NaN,NaN,NaN,NaN,NaN,NaN,NaN,NaN,NaN,NaN,NaN,NaN,NaN,NaN,NaN,NaN,NaN,NaN,NaN,NaN,NaN,NaN,NaN,NaN,NaN,NaN,NaN,NaN,NaN,NaN,NaN,NaN,NaN,NaN,NaN,NaN,NaN,NaN,NaN,NaN,NaN,NaN,NaN,NaN,NaN,NaN,NaN,NaN,NaN,NaN,NaN,NaN,NaN,NaN,NaN,NaN,NaN,NaN,NaN,NaN,NaN,NaN,NaN,NaN,NaN,NaN,NaN,NaN,NaN,NaN,NaN,NaN,NaN,NaN,NaN,NaN
NaN,NaN,NaN,NaN,NaN,NaN,NaN,NaN,NaN,NaN,NaN,NaN,NaN,NaN,NaN,NaN,NaN,NaN,NaN,NaN,NaN,NaN,NaN,NaN,NaN,NaN,NaN,NaN,NaN,NaN,NaN,NaN,NaN,NaN,NaN,NaN,NaN,NaN,NaN,NaN,NaN,NaN,NaN,NaN,NaN,NaN,NaN,NaN,NaN,NaN,NaN,NaN,NaN,NaN,NaN,NaN,NaN,NaN,NaN,NaN,NaN,NaN,NaN,NaN,NaN,NaN,NaN,NaN,NaN,NaN,NaN,NaN,NaN,NaN,NaN,NaN,NaN,NaN,NaN,NaN,NaN,NaN,NaN,NaN,6.35,19.44,32.14,62.0,83.43,89.28,101.58,114.68,121.52,143.25,174.99,200.88,209.91,209.91,166.76,128.56,121.52,108.03,95.33,89.28,121.52,114.68,121.52,108.03,83.43,95.33,77.77,62.0,62.0,67.06,72.32,72.32,77.77,83.43,83.43,89.28,95.33,101.58,114.68,143.25,174.99,183.42,183.42,200.88,174.99,278.65,311.09,268.24,228.56,268.24,289.27,300.08,345.32,345.32,357.12,381.33,406.32,445.31,458.7,406.32,393.73,345.32,322.3,357.12,369.12,357.12,357.12,357.12,357.12,357.12,357.12,357.12,369.12,369.12,369.12,369.12,369.12,369.12,381.33,381.33,406.32,419.12,419.12,406.32,393.73,369.12,357.12,333.71,311.09,289.27,278.65,278.65,268.24,258.02,278.65,278.65,248.0,228.56,219.13,209.91,209.91,209.91,219.13,219.13,238.18,228.56,228.56,238.18,238.18,219.13,219.13,228.56,248.0,248.0,228.56,209.91,219.13,219.13,248.0,278.65,300.08,289.27,268.24,228.56,219.13,219.13,219.13,209.91,209.91,200.88,200.88,200.88,200.88,200.88,209.91,209.91,209.91,209.91,209.91,209.91,219.13,219.13,228.56,219.13,219.13,228.56,228.56,238.18,258.02,268.24,278.65,289.27,300.08,300.08,278.65,300.08,289.27,268.24,268.24,258.02,248.0,289.27,322.3,238.18,174.99,228.56,158.72,89.28,101.58,121.52,83.43,67.06,62.0,57.14,52.48,57.14,52.48,48.01,39.68,35.81,28.67,28.67,28.67,28.67,28.67,43.75,52.48,57.14,39.68,22.32,22.32,22.32,22.32,22.32,25.4,25.4,28.67,35.81,48.01,57.14,62.0,72.32,83.43,89.28,101.58,121.52,143.25,200.88,300.08,289.27,278.65,228.56,238.18,248.0,258.02,258.02,311.09,357.12,406.32,543.22,667.02,667.02,514.25,458.7,543.22,558.0,558.0,634.88,750.85,768.21,699.96,650.85,603.53,572.98,572.98,558.0,572.98,603.53,650.85,500.07,128.56,95.33,128.56,183.42,57.14,95.33,NaN,NaN,NaN,NaN,NaN,NaN,NaN,NaN,NaN,NaN,NaN,NaN,NaN,NaN,NaN,NaN,NaN,NaN,NaN,NaN,NaN,NaN,NaN,NaN,NaN,NaN,NaN,NaN,NaN,NaN,NaN,NaN,NaN,NaN,NaN,NaN,NaN,NaN,NaN,NaN,NaN,NaN,NaN,NaN,NaN,NaN,NaN,NaN,NaN,NaN,NaN,NaN,NaN,NaN,NaN,NaN,NaN,NaN,NaN,NaN,NaN,NaN,NaN,NaN,NaN,NaN,NaN,NaN,NaN,NaN,NaN,NaN,NaN,NaN,NaN,NaN
NaN,NaN,NaN,NaN,NaN,NaN,NaN,NaN,NaN,NaN,NaN,NaN,NaN,NaN,NaN,NaN,NaN,NaN,NaN,NaN,NaN,NaN,NaN,NaN,NaN,NaN,NaN,NaN,NaN,NaN,NaN,NaN,NaN,NaN,NaN,NaN,NaN,NaN,NaN,NaN,NaN,NaN,NaN,NaN,NaN,NaN,NaN,NaN,NaN,NaN,NaN,NaN,NaN,NaN,NaN,NaN,NaN,NaN,NaN,NaN,NaN,NaN,NaN,NaN,NaN,NaN,NaN,NaN,NaN,NaN,NaN,NaN,NaN,NaN,NaN,NaN,NaN,NaN,NaN,NaN,NaN,NaN,NaN,NaN,12.0,19.44,52.48,89.28,108.03,135.81,150.88,166.76,158.72,158.72,174.99,200.88,219.13,219.13,219.13,183.42,128.56,121.52,108.03,101.58,108.03,121.52,135.81,143.25,135.81,108.03,95.33,77.77,72.32,72.32,72.32,89.28,89.28,89.28,89.28,89.28,101.58,101.58,108.03,128.56,166.76,183.42,183.42,228.56,219.13,219.13,258.02,248.0,228.56,311.09,300.08,289.27,311.09,322.3,357.12,381.33,406.32,458.7,458.7,432.12,406.32,369.12,369.12,369.12,369.12,357.12,345.32,345.32,345.32,357.12,381.33,381.33,369.12,369.12,369.12,369.12,381.33,406.32,419.12,393.73,393.73,393.73,406.32,419.12,406.32,393.73,369.12,345.32,322.3,300.08,289.27,278.65,268.24,258.02,268.24,268.24,228.56,219.13,219.13,219.13,209.91,209.91,219.13,228.56,238.18,238.18,228.56,228.56,248.0,238.18,219.13,219.13,238.18,238.18,238.18,228.56,228.56,228.56,238.18,258.02,278.65,311.09,311.09,258.02,228.56,219.13,219.13,209.91,209.91,200.88,200.88,200.88,200.88,200.88,200.88,200.88,200.88,200.88,200.88,209.91,209.91,219.13,219.13,219.13,219.13,228.56,228.56,238.18,238.18,268.24,289.27,300.08,311.09,311.09,311.09,333.71,333.71,300.08,311.09,322.3,289.27,268.24,258.02,200.88,183.42,219.13,228.56,114.68,108.03,114.68,83.43,89.28,83.43,72.32,67.06,62.0,57.14,52.48,43.75,39.68,32.14,32.14,32.14,35.81,32.14,39.68,48.01,48.01,39.68,28.67,25.4,25.4,28.67,28.67,28.67,28.67,32.14,39.68,48.01,57.14,67.06,77.77,89.28,95.33,108.03,121.52,150.88,174.99,248.0,311.09,300.08,278.65,258.02,258.02,268.24,278.65,345.32,406.32,458.7,588.16,716.72,603.53,486.08,458.7,486.08,528.64,528.64,572.98,619.11,619.11,588.16,572.98,558.0,543.22,528.64,543.22,572.98,634.88,634.88,603.53,345.32,114.68,43.75,158.72,14.28,2.48,NaN,NaN,NaN,NaN,NaN,NaN,NaN,NaN,NaN,NaN,NaN,NaN,NaN,NaN,NaN,NaN,NaN,NaN,NaN,NaN,NaN,NaN,NaN,NaN,NaN,NaN,NaN,NaN,NaN,NaN,NaN,NaN,NaN,NaN,NaN,NaN,NaN,NaN,NaN,NaN,NaN,NaN,NaN,NaN,NaN,NaN,NaN,NaN,NaN,NaN,NaN,NaN,NaN,NaN,NaN,NaN,NaN,NaN,NaN,NaN,NaN,NaN,NaN,NaN,NaN,NaN,NaN,NaN,NaN,NaN,NaN,NaN,NaN,NaN,NaN,NaN
NaN,NaN,NaN,NaN,NaN,NaN,NaN,NaN,NaN,NaN,NaN,NaN,NaN,NaN,NaN,NaN,NaN,NaN,NaN,NaN,NaN,NaN,NaN,NaN,NaN,NaN,NaN,NaN,NaN,NaN,NaN,NaN,NaN,NaN,NaN,NaN,NaN,NaN,NaN,NaN,NaN,NaN,NaN,NaN,NaN,NaN,NaN,NaN,NaN,NaN,NaN,NaN,NaN,NaN,NaN,NaN,NaN,NaN,NaN,NaN,NaN,NaN,NaN,NaN,NaN,NaN,NaN,NaN,NaN,NaN,NaN,NaN,NaN,NaN,NaN,NaN,NaN,NaN,NaN,NaN,NaN,NaN,0.4,3.57,16.76,32.14,57.14,83.43,114.68,135.81,158.72,183.42,183.42,192.05,192.05,200.88,219.13,209.91,228.56,228.56,158.72,143.25,114.68,114.68,135.81,135.81,143.25,150.88,174.99,150.88,128.56,101.58,95.33,83.43,89.28,150.88,200.88,158.72,135.81,114.68,108.03,114.68,114.68,128.56,143.25,192.05,228.56,238.18,268.24,248.0,248.0,278.65,258.02,268.24,278.65,289.27,300.08,322.3,345.32,369.12,393.73,432.12,432.12,432.12,406.32,381.33,369.12,357.12,357.12,345.32,345.32,333.71,357.12,357.12,381.33,406.32,406.32,393.73,406.32,381.33,381.33,393.73,445.31,419.12,406.32,419.12,406.32,419.12,419.12,393.73,357.12,345.32,322.3,311.09,289.27,278.65,278.65,258.02,258.02,258.02,228.56,238.18,238.18,219.13,209.91,209.91,219.13,228.56,238.18,248.0,228.56,238.18,248.0,238.18,219.13,219.13,219.13,228.56,238.18,238.18,238.18,258.02,258.02,278.65,289.27,311.09,322.3,278.65,238.18,228.56,228.56,219.13,219.13,209.91,200.88,200.88,200.88,200.88,200.88,200.88,200.88,200.88,200.88,200.88,209.91,209.91,219.13,219.13,219.13,228.56,228.56,228.56,238.18,278.65,311.09,289.27,278.65,289.27,278.65,300.08,322.3,345.32,333.71,300.08,278.65,248.0,219.13,219.13,219.13,209.91,219.13,135.81,135.81,114.68,128.56,128.56,101.58,83.43,77.77,72.32,62.0,57.14,48.01,39.68,35.81,43.75,48.01,39.68,39.68,43.75,57.14,48.01,32.14,32.14,32.14,32.14,32.14,32.14,32.14,35.81,39.68,43.75,52.48,62.0,72.32,83.43,95.33,101.58,114.68,128.56,143.25,174.99,209.91,258.02,300.08,289.27,278.65,300.08,311.09,289.27,322.3,419.12,500.07,572.98,650.85,667.02,528.64,472.29,486.08,486.08,514.25,528.64,543.22,528.64,514.25,528.64,514.25,528.64,528.64,543.22,558.0,603.53,619.11,667.02,603.53,166.76,32.14,14.28,8.04,1.59,NaN,NaN,NaN,NaN,NaN,NaN,NaN,NaN,NaN,NaN,NaN,NaN,NaN,NaN,NaN,NaN,NaN,NaN,NaN,NaN,NaN,NaN,NaN,NaN,NaN,NaN,NaN,NaN,NaN,NaN,NaN,NaN,NaN,NaN,NaN,NaN,NaN,NaN,NaN,NaN,NaN,NaN,NaN,NaN,NaN,NaN,NaN,NaN,NaN,NaN,NaN,NaN,NaN,NaN,NaN,NaN,NaN,NaN,NaN,NaN,NaN,NaN,NaN,NaN,NaN,NaN,NaN,NaN,NaN,NaN,NaN,NaN,NaN,NaN,NaN,NaN
NaN,NaN,NaN,NaN,NaN,NaN,NaN,NaN,NaN,NaN,NaN,NaN,NaN,NaN,NaN,NaN,NaN,NaN,NaN,NaN,NaN,NaN,NaN,NaN,NaN,NaN,NaN,NaN,NaN,NaN,NaN,NaN,NaN,NaN,NaN,NaN,NaN,NaN,NaN,NaN,NaN,NaN,NaN,NaN,NaN,NaN,NaN,NaN,NaN,NaN,NaN,NaN,NaN,NaN,NaN,NaN,NaN,NaN,NaN,NaN,NaN,NaN,NaN,NaN,NaN,NaN,NaN,NaN,NaN,NaN,NaN,NaN,NaN,NaN,NaN,NaN,NaN,NaN,NaN,NaN,NaN,NaN,NaN,19.44,35.81,48.01,67.06,95.33,121.52,128.56,143.25,166.76,192.05,166.76,166.76,200.88,200.88,200.88,228.56,200.88,158.72,158.72,135.81,143.25,158.72,150.88,158.72,174.99,183.42,158.72,143.25,114.68,121.52,101.58,95.33,166.76,238.18,200.88,200.88,166.76,121.52,128.56,135.81,135.81,135.81,158.72,192.05,268.24,258.02,268.24,258.02,268.24,278.65,278.65,289.27,289.27,311.09,333.71,369.12,393.73,419.12,419.12,419.12,419.12,393.73,369.12,357.12,357.12,345.32,333.71,333.71,357.12,369.12,381.33,393.73,419.12,432.12,406.32,406.32,393.73,406.32,432.12,419.12,432.12,445.31,445.31,445.31,432.12,393.73,381.33,369.12,357.12,322.3,311.09,300.08,289.27,289.27,258.02,238.18,238.18,248.0,258.02,238.18,219.13,209.91,219.13,228.56,238.18,238.18,238.18,238.18,248.0,248.0,238.18,228.56,228.56,228.56,228.56,228.56,238.18,248.0,268.24,289.27,300.08,300.08,322.3,300.08,278.65,248.0,238.18,228.56,228.56,228.56,219.13,209.91,209.91,209.91,209.91,209.91,209.91,209.91,200.88,200.88,200.88,200.88,209.91,219.13,219.13,219.13,228.56,228.56,228.56,238.18,258.02,289.27,289.27,268.24,268.24,268.24,268.24,278.65,289.27,278.65,258.02,258.02,238.18,219.13,209.91,192.05,200.88,183.42,166.76,166.76,135.81,166.76,143.25,114.68,95.33,83.43,77.77,72.32,57.14,48.01,43.75,43.75,48.01,57.14,43.75,48.01,39.68,48.01,39.68,35.81,35.81,35.81,35.81,35.81,35.81,35.81,39.68,43.75,48.01,57.14,67.06,77.77,89.28,101.58,108.03,121.52,135.81,143.25,174.99,183.42,258.02,322.3,322.3,300.08,345.32,322.3,322.3,345.32,393.73,393.73,486.08,667.02,667.02,528.64,500.07,543.22,500.07,514.25,543.22,558.0,514.25,472.29,472.29,486.08,543.22,486.08,500.07,472.29,486.08,486.08,603.53,603.53,200.88,143.25,32.14,6.35,NaN,NaN,NaN,89.28,NaN,NaN,NaN,NaN,NaN,NaN,NaN,NaN,NaN,NaN,NaN,NaN,NaN,NaN,NaN,NaN,NaN,NaN,NaN,NaN,NaN,NaN,NaN,NaN,NaN,NaN,NaN,NaN,NaN,NaN,NaN,NaN,NaN,NaN,NaN,NaN,NaN,NaN,NaN,NaN,NaN,NaN,NaN,NaN,NaN,NaN,NaN,NaN,NaN,NaN,NaN,NaN,NaN,NaN,NaN,NaN,NaN,NaN,NaN,NaN,NaN,NaN,NaN,NaN,NaN,NaN,NaN,NaN,NaN,NaN,NaN,NaN,NaN
NaN,NaN,NaN,NaN,NaN,NaN,NaN,NaN,NaN,NaN,NaN,NaN,NaN,NaN,NaN,NaN,NaN,NaN,NaN,NaN,NaN,NaN,NaN,NaN,NaN,NaN,NaN,NaN,NaN,NaN,NaN,NaN,NaN,NaN,NaN,NaN,NaN,NaN,NaN,NaN,NaN,NaN,NaN,NaN,NaN,NaN,NaN,NaN,NaN,NaN,NaN,NaN,NaN,NaN,NaN,NaN,NaN,NaN,NaN,NaN,NaN,NaN,NaN,NaN,NaN,NaN,NaN,NaN,NaN,NaN,NaN,NaN,NaN,NaN,NaN,NaN,NaN,NaN,NaN,NaN,NaN,NaN,8.04,19.44,39.68,67.06,89.28,101.58,114.68,128.56,158.72,166.76,158.72,166.76,200.88,200.88,183.42,192.05,228.56,192.05,192.05,183.42,174.99,192.05,183.42,183.42,200.88,192.05,174.99,158.72,143.25,143.25,143.25,135.81,114.68,121.52,150.88,143.25,158.72,183.42,135.81,150.88,158.72,166.76,166.76,158.72,192.05,219.13,219.13,248.0,248.0,258.02,278.65,278.65,322.3,333.71,357.12,369.12,393.73,432.12,406.32,393.73,393.73,393.73,381.33,369.12,345.32,345.32,333.71,345.32,369.12,381.33,369.12,381.33,406.32,432.12,432.12,432.12,419.12,432.12,406.32,393.73,406.32,432.12,445.31,472.29,472.29,432.12,419.12,406.32,393.73,357.12,333.71,322.3,311.09,289.27,300.08,278.65,248.0,248.0,248.0,268.24,258.02,238.18,238.18,248.0,238.18,238.18,238.18,238.18,258.02,268.24,248.0,248.0,238.18,228.56,248.0,238.18,238.18,248.0,248.0,268.24,300.08,300.08,333.71,345.32,311.09,289.27,258.02,248.0,238.18,238.18,228.56,219.13,209.91,209.91,209.91,209.91,219.13,209.91,200.88,200.88,200.88,200.88,200.88,200.88,209.91,209.91,219.13,219.13,228.56,238.18,238.18,278.65,311.09,300.08,278.65,258.02,268.24,268.24,268.24,268.24,258.02,258.02,258.02,248.0,238.18,228.56,219.13,209.91,200.88,183.42,183.42,174.99,166.76,135.81,114.68,108.03,108.03,95.33,83.43,72.32,57.14,48.01,48.01,48.01,57.14,48.01,52.48,52.48,48.01,39.68,39.68,39.68,39.68,39.68,39.68,39.68,43.75,43.75,48.01,52.48,62.0,72.32,83.43,95.33,101.58,114.68,128.56,135.81,150.88,166.76,183.42,219.13,289.27,369.12,369.12,369.12,345.32,369.12,357.12,381.33,458.7,572.98,733.68,634.88,558.0,528.64,558.0,543.22,528.64,572.98,572.98,543.22,486.08,458.7,486.08,486.08,472.29,445.31,432.12,458.7,432.12,486.08,650.85,619.11,419.12,311.09,72.32,0.1,NaN,NaN,NaN,NaN,NaN,NaN,NaN,NaN,NaN,NaN,NaN,NaN,NaN,NaN,NaN,NaN,NaN,NaN,NaN,NaN,NaN,NaN,NaN,NaN,NaN,NaN,NaN,NaN,NaN,NaN,NaN,NaN,NaN,NaN,NaN,NaN,NaN,NaN,NaN,NaN,NaN,NaN,NaN,NaN,NaN,NaN,NaN,NaN,NaN,NaN,NaN,NaN,NaN,NaN,NaN,NaN,NaN,NaN,NaN,NaN,NaN,NaN,NaN,NaN,NaN,NaN,NaN,NaN,NaN,NaN,NaN,NaN,NaN,NaN,NaN,NaN
NaN,NaN,NaN,NaN,NaN,NaN,NaN,NaN,NaN,NaN,NaN,NaN,NaN,NaN,NaN,NaN,NaN,NaN,NaN,NaN,NaN,NaN,NaN,NaN,NaN,NaN,NaN,NaN,NaN,NaN,NaN,NaN,NaN,NaN,NaN,NaN,NaN,NaN,NaN,NaN,NaN,NaN,NaN,NaN,NaN,NaN,NaN,NaN,NaN,NaN,NaN,NaN,NaN,NaN,NaN,NaN,NaN,NaN,NaN,NaN,NaN,NaN,NaN,NaN,NaN,NaN,NaN,NaN,NaN,NaN,NaN,NaN,NaN,NaN,NaN,NaN,NaN,NaN,NaN,NaN,NaN,NaN,8.04,32.14,57.14,83.43,101.58,95.33,128.56,150.88,158.72,150.88,143.25,183.42,209.91,174.99,174.99,219.13,219.13,192.05,200.88,219.13,209.91,183.42,174.99,174.99,192.05,183.42,192.05,183.42,183.42,166.76,166.76,158.72,135.81,143.25,166.76,135.81,158.72,166.76,166.76,183.42,158.72,150.88,166.76,166.76,192.05,209.91,219.13,278.65,311.09,322.3,300.08,289.27,333.71,357.12,369.12,393.73,419.12,432.12,419.12,393.73,381.33,369.12,369.12,357.12,345.32,333.71,322.3,333.71,333.71,357.12,357.12,369.12,406.32,432.12,445.31,458.7,445.31,432.12,419.12,393.73,406.32,406.32,419.12,472.29,486.08,432.12,432.12,406.32,381.33,357.12,333.71,322.3,311.09,311.09,311.09,268.24,278.65,278.65,258.02,278.65,289.27,258.02,278.65,258.02,238.18,238.18,238.18,238.18,268.24,278.65,268.24,268.24,228.56,228.56,248.0,248.0,248.0,258.02,258.02,268.24,300.08,311.09,322.3,345.32,322.3,311.09,268.24,258.02,238.18,238.18,228.56,219.13,219.13,219.13,219.13,219.13,228.56,219.13,209.91,200.88,200.88,200.88,200.88,200.88,209.91,219.13,219.13,219.13,228.56,238.18,248.0,258.02,248.0,248.0,248.0,258.02,258.02,258.02,258.02,258.02,258.02,258.02,258.02,258.02,248.0,228.56,228.56,219.13,200.88,183.42,166.76,150.88,150.88,135.81,143.25,143.25,121.52,135.81,101.58,95.33,67.06,57.14,52.48,52.48,52.48,52.48,57.14,67.06,57.14,43.75,43.75,43.75,43.75,43.75,43.75,43.75,48.01,52.48,57.14,57.14,67.06,77.77,89.28,95.33,108.03,121.52,135.81,143.25,158.72,166.76,192.05,209.91,248.0,333.71,357.12,381.33,381.33,381.33,432.12,445.31,500.07,603.53,683.39,699.96,650.85,603.53,603.53,650.85,543.22,543.22,543.22,572.98,514.25,486.08,432.12,432.12,432.12,419.12,419.12,419.12,419.12,432.12,588.16,699.96,699.96,803.52,357.12,19.44,NaN,NaN,NaN,NaN,NaN,NaN,NaN,NaN,NaN,NaN,NaN,NaN,NaN,NaN,NaN,NaN,NaN,NaN,NaN,NaN,NaN,NaN,NaN,NaN,NaN,NaN,NaN,NaN,NaN,NaN,NaN,NaN,NaN,NaN,NaN,NaN,NaN,NaN,NaN,NaN,NaN,NaN,NaN,NaN,NaN,NaN,NaN,NaN,NaN,NaN,NaN,NaN,NaN,NaN,NaN,NaN,NaN,NaN,NaN,NaN,NaN,NaN,NaN,NaN,NaN,NaN,NaN,NaN,NaN,NaN,NaN,NaN,NaN,NaN,NaN,NaN
NaN,NaN,NaN,NaN,NaN,NaN,NaN,NaN,NaN,NaN,NaN,NaN,NaN,NaN,NaN,NaN,NaN,NaN,NaN,NaN,NaN,NaN,NaN,NaN,NaN,NaN,NaN,NaN,NaN,NaN,NaN,NaN,NaN,NaN,NaN,NaN,NaN,NaN,NaN,NaN,NaN,NaN,NaN,NaN,NaN,NaN,NaN,NaN,NaN,NaN,NaN,NaN,NaN,NaN,NaN,NaN,NaN,NaN,NaN,NaN,NaN,NaN,NaN,NaN,NaN,NaN,NaN,NaN,NaN,NaN,NaN,NaN,NaN,NaN,NaN,NaN,NaN,NaN,NaN,NaN,NaN,3.57,22.32,39.68,62.0,77.77,83.43,101.58,128.56,150.88,143.25,135.81,158.72,192.05,192.05,166.76,183.42,200.88,183.42,183.42,200.88,192.05,183.42,166.76,158.72,158.72,166.76,158.72,183.42,192.05,200.88,200.88,200.88,174.99,166.76,183.42,192.05,158.72,166.76,174.99,174.99,183.42,166.76,166.76,174.99,174.99,183.42,200.88,238.18,268.24,300.08,333.71,322.3,322.3,311.09,333.71,345.32,369.12,406.32,406.32,393.73,393.73,381.33,357.12,369.12,333.71,322.3,322.3,322.3,333.71,345.32,393.73,406.32,393.73,393.73,406.32,432.12,432.12,432.12,445.31,419.12,419.12,406.32,419.12,432.12,445.31,458.7,419.12,419.12,406.32,393.73,369.12,333.71,333.71,333.71,322.3,300.08,300.08,311.09,289.27,278.65,300.08,289.27,268.24,268.24,258.02,248.0,238.18,238.18,248.0,268.24,278.65,278.65,248.0,238.18,238.18,258.02,258.02,268.24,268.24,278.65,300.08,289.27,289.27,300.08,322.3,345.32,322.3,278.65,258.02,248.0,238.18,228.56,219.13,219.13,228.56,219.13,228.56,238.18,219.13,209.91,200.88,200.88,200.88,209.91,219.13,209.91,219.13,219.13,219.13,228.56,228.56,228.56,238.18,238.18,248.0,248.0,258.02,258.02,258.02,258.02,258.02,258.02,258.02,258.02,258.02,248.0,238.18,209.91,200.88,192.05,183.42,174.99,158.72,183.42,174.99,166.76,192.05,183.42,200.88,143.25,128.56,89.28,67.06,57.14,57.14,57.14,57.14,62.0,72.32,62.0,48.01,43.75,48.01,48.01,48.01,48.01,48.01,52.48,57.14,62.0,67.06,72.32,83.43,95.33,101.58,114.68,128.56,143.25,150.88,166.76,183.42,200.88,219.13,248.0,278.65,333.71,357.12,419.12,432.12,419.12,486.08,558.0,588.16,650.85,716.72,699.96,699.96,683.39,603.53,558.0,572.98,572.98,572.98,528.64,500.07,458.7,472.29,445.31,406.32,406.32,458.7,393.73,432.12,458.7,528.64,716.72,733.68,603.53,406.32,62.0,0.89,NaN,NaN,19.44,NaN,NaN,NaN,NaN,NaN,NaN,NaN,NaN,NaN,NaN,NaN,NaN,NaN,NaN,NaN,NaN,NaN,NaN,NaN,NaN,NaN,NaN,NaN,NaN,NaN,NaN,NaN,NaN,NaN,NaN,NaN,NaN,NaN,NaN,NaN,NaN,NaN,NaN,NaN,NaN,NaN,NaN,NaN,NaN,NaN,NaN,NaN,NaN,NaN,NaN,NaN,NaN,NaN,NaN,NaN,NaN,NaN,NaN,NaN,NaN,NaN,NaN,NaN,NaN,NaN,NaN,NaN,NaN,NaN,NaN,NaN
NaN,NaN,NaN,NaN,NaN,NaN,NaN,NaN,NaN,NaN,NaN,NaN,NaN,NaN,NaN,NaN,NaN,NaN,NaN,NaN,NaN,NaN,NaN,NaN,NaN,NaN,NaN,NaN,NaN,NaN,NaN,NaN,NaN,NaN,NaN,NaN,NaN,NaN,NaN,NaN,NaN,NaN,NaN,NaN,NaN,NaN,NaN,NaN,NaN,NaN,NaN,NaN,NaN,NaN,NaN,NaN,NaN,NaN,NaN,NaN,NaN,NaN,NaN,NaN,NaN,NaN,NaN,NaN,NaN,NaN,NaN,NaN,NaN,NaN,NaN,NaN,NaN,NaN,NaN,NaN,NaN,8.04,19.44,43.75,57.14,57.14,67.06,95.33,101.58,114.68,108.03,128.56,143.25,166.76,174.99,158.72,183.42,174.99,158.72,166.76,166.76,166.76,158.72,150.88,143.25,174.99,183.42,158.72,158.72,183.42,192.05,209.91,228.56,209.91,209.91,209.91,219.13,200.88,200.88,192.05,209.91,228.56,228.56,200.88,209.91,200.88,192.05,219.13,248.0,258.02,268.24,300.08,311.09,333.71,333.71,357.12,381.33,393.73,406.32,381.33,369.12,357.12,345.32,345.32,345.32,322.3,311.09,322.3,322.3,333.71,345.32,369.12,406.32,432.12,500.07,432.12,406.32,406.32,406.32,458.7,458.7,458.7,445.31,458.7,472.29,445.31,419.12,406.32,393.73,381.33,369.12,345.32,357.12,311.09,300.08,300.08,322.3,333.71,322.3,289.27,300.08,311.09,300.08,278.65,248.0,248.0,248.0,248.0,248.0,258.02,289.27,300.08,289.27,248.0,238.18,248.0,278.65,268.24,300.08,278.65,278.65,322.3,300.08,311.09,333.71,322.3,345.32,333.71,289.27,268.24,248.0,238.18,228.56,228.56,228.56,228.56,228.56,228.56,228.56,219.13,209.91,209.91,209.91,209.91,209.91,209.91,219.13,219.13,219.13,219.13,219.13,228.56,228.56,238.18,248.0,248.0,248.0,248.0,258.02,258.02,258.02,258.02,268.24,268.24,258.02,258.02,238.18,228.56,219.13,200.88,200.88,192.05,192.05,183.42,192.05,200.88,209.91,248.0,248.0,219.13,183.42,183.42,121.52,77.77,77.77,67.06,67.06,67.06,72.32,77.77,57.14,52.48,48.01,48.01,52.48,52.48,52.48,52.48,57.14,62.0,67.06,72.32,77.77,89.28,101.58,108.03,121.52,135.81,143.25,166.76,174.99,192.05,209.91,238.18,248.0,278.65,311.09,357.12,445.31,486.08,458.7,472.29,558.0,558.0,650.85,699.96,785.76,699.96,667.02,619.11,588.16,588.16,588.16,603.53,528.64,514.25,486.08,486.08,458.7,432.12,369.12,381.33,419.12,369.12,432.12,543.22,667.02,543.22,458.7,667.02,300.08,19.44,2.48,3.57,67.06,NaN,NaN,NaN,NaN,NaN,NaN,NaN,NaN,NaN,NaN,NaN,NaN,NaN,NaN,NaN,NaN,NaN,NaN,NaN,NaN,NaN,NaN,NaN,NaN,NaN,NaN,NaN,NaN,NaN,NaN,NaN,NaN,NaN,NaN,NaN,NaN,NaN,NaN,NaN,NaN,NaN,NaN,NaN,NaN,NaN,NaN,NaN,NaN,NaN,NaN,NaN,NaN,NaN,NaN,NaN,NaN,NaN,NaN,NaN,NaN,NaN,NaN,NaN,NaN,NaN,NaN,NaN,NaN,NaN,NaN,NaN
NaN,NaN,NaN,NaN,NaN,NaN,NaN,NaN,NaN,NaN,NaN,NaN,NaN,NaN,NaN,NaN,NaN,NaN,NaN,NaN,NaN,NaN,NaN,NaN,NaN,NaN,NaN,NaN,NaN,NaN,NaN,NaN,NaN,NaN,NaN,NaN,NaN,NaN,NaN,NaN,NaN,NaN,NaN,NaN,NaN,NaN,NaN,NaN,NaN,NaN,NaN,NaN,NaN,NaN,NaN,NaN,NaN,NaN,NaN,NaN,NaN,NaN,NaN,NaN,NaN,NaN,NaN,NaN,NaN,NaN,NaN,NaN,NaN,NaN,NaN,NaN,NaN,NaN,NaN,NaN,6.35,14.28,32.14,48.01,67.06,57.14,48.01,77.77,83.43,83.43,77.77,95.33,114.68,128.56,143.25,135.81,143.25,143.25,135.81,150.88,174.99,183.42,183.42,158.72,135.81,158.72,166.76,150.88,150.88,166.76,166.76,183.42,200.88,209.91,228.56,209.91,228.56,219.13,200.88,219.13,238.18,238.18,238.18,238.18,238.18,248.0,238.18,248.0,258.02,258.02,268.24,278.65,300.08,311.09,333.71,381.33,406.32,406.32,381.33,369.12,357.12,345.32,333.71,333.71,322.3,322.3,311.09,333.71,333.71,345.32,333.71,357.12,406.32,432.12,445.31,486.08,458.7,445.31,432.12,445.31,472.29,445.31,432.12,445.31,472.29,445.31,419.12,393.73,369.12,357.12,357.12,333.71,333.71,311.09,300.08,289.27,311.09,322.3,311.09,289.27,311.09,289.27,268.24,278.65,258.02,258.02,258.02,268.24,289.27,289.27,289.27,268.24,258.02,238.18,248.0,268.24,289.27,289.27,300.08,289.27,289.27,311.09,311.09,322.3,357.12,369.12,345.32,322.3,300.08,300.08,278.65,258.02,248.0,238.18,238.18,238.18,238.18,228.56,219.13,219.13,219.13,209.91,209.91,209.91,219.13,209.91,209.91,219.13,219.13,219.13,228.56,219.13,228.56,238.18,238.18,238.18,248.0,248.0,248.0,258.02,258.02,258.02,258.02,258.02,268.24,258.02,248.0,248.0,238.18,228.56,209.91,200.88,200.88,200.88,209.91,228.56,248.0,311.09,289.27,248.0,258.02,209.91,174.99,101.58,83.43,72.32,72.32,72.32,83.43,72.32,72.32,72.32,62.0,52.48,52.48,57.14,57.14,57.14,62.0,67.06,72.32,77.77,83.43,89.28,101.58,114.68,121.52,135.81,150.88,166.76,183.42,200.88,209.91,228.56,248.0,268.24,300.08,322.3,369.12,458.7,500.07,500.07,528.64,572.98,650.85,667.02,768.21,733.68,716.72,667.02,634.88,619.11,650.85,603.53,543.22,528.64,528.64,514.25,445.31,406.32,406.32,406.32,458.7,406.32,357.12,406.32,458.7,406.32,406.32,472.29,458.7,108.03,22.32,12.0,4.86,1.59,57.14,NaN,NaN,NaN,NaN,NaN,NaN,NaN,NaN,NaN,NaN,NaN,NaN,NaN,NaN,NaN,NaN,NaN,NaN,NaN,NaN,NaN,NaN,NaN,NaN,NaN,NaN,NaN,NaN,NaN,NaN,NaN,NaN,NaN,NaN,NaN,NaN,NaN,NaN,NaN,NaN,NaN,NaN,NaN,NaN,NaN,NaN,NaN,NaN,NaN,NaN,NaN,NaN,NaN,NaN,NaN,NaN,NaN,NaN,NaN,NaN,NaN,NaN,NaN,NaN,NaN,NaN,NaN,NaN,NaN
NaN,NaN,NaN,NaN,NaN,NaN,NaN,NaN,NaN,NaN,NaN,NaN,NaN,NaN,NaN,NaN,NaN,NaN,NaN,NaN,NaN,NaN,NaN,NaN,NaN,NaN,NaN,NaN,NaN,NaN,NaN,NaN,NaN,NaN,NaN,NaN,NaN,NaN,NaN,NaN,NaN,NaN,NaN,NaN,NaN,NaN,NaN,NaN,NaN,NaN,NaN,NaN,NaN,NaN,NaN,NaN,NaN,NaN,NaN,NaN,NaN,NaN,NaN,NaN,NaN,NaN,NaN,NaN,NaN,NaN,NaN,NaN,NaN,NaN,NaN,NaN,NaN,NaN,NaN,4.86,9.92,16.76,39.68,57.14,83.43,62.0,48.01,57.14,57.14,72.32,83.43,83.43,89.28,101.58,108.03,114.68,121.52,121.52,128.56,158.72,183.42,183.42,158.72,143.25,128.56,128.56,128.56,135.81,135.81,143.25,150.88,150.88,166.76,192.05,228.56,200.88,219.13,219.13,192.05,209.91,238.18,238.18,228.56,228.56,238.18,238.18,248.0,268.24,289.27,278.65,278.65,278.65,300.08,322.3,345.32,369.12,381.33,419.12,393.73,369.12,345.32,333.71,322.3,311.09,322.3,345.32,322.3,333.71,322.3,322.3,333.71,345.32,381.33,406.32,419.12,500.07,486.08,445.31,419.12,432.12,445.31,419.12,419.12,419.12,472.29,445.31,406.32,393.73,381.33,357.12,345.32,333.71,322.3,311.09,300.08,289.27,289.27,289.27,278.65,268.24,268.24,268.24,258.02,268.24,258.02,258.02,268.24,300.08,300.08,300.08,258.02,248.0,248.0,258.02,258.02,268.24,300.08,300.08,300.08,289.27,289.27,289.27,311.09,333.71,333.71,333.71,322.3,322.3,300.08,311.09,289.27,268.24,258.02,248.0,248.0,248.0,238.18,228.56,219.13,219.13,219.13,219.13,219.13,219.13,219.13,219.13,219.13,219.13,228.56,228.56,228.56,228.56,228.56,238.18,238.18,238.18,238.18,248.0,248.0,248.0,258.02,258.02,258.02,258.02,258.02,258.02,258.02,248.0,238.18,238.18,219.13,200.88,200.88,200.88,209.91,228.56,268.24,300.08,311.09,289.27,278.65,238.18,158.72,101.58,89.28,83.43,83.43,83.43,95.33,77.77,77.77,89.28,77.77,62.0,57.14,62.0,62.0,62.0,67.06,67.06,72.32,77.77,89.28,95.33,101.58,114.68,128.56,135.81,150.88,166.76,183.42,192.05,209.91,228.56,248.0,278.65,300.08,333.71,393.73,500.07,603.53,558.0,558.0,619.11,603.53,699.96,803.52,821.48,785.76,750.85,683.39,716.72,716.72,588.16,588.16,543.22,543.22,486.08,419.12,406.32,432.12,558.0,419.12,381.33,322.3,333.71,322.3,333.71,406.32,486.08,432.12,183.42,121.52,108.03,83.43,48.01,6.35,0.89,NaN,NaN,0.0,NaN,NaN,NaN,NaN,NaN,NaN,NaN,NaN,NaN,NaN,NaN,NaN,NaN,NaN,NaN,NaN,NaN,NaN,NaN,NaN,NaN,NaN,NaN,NaN,NaN,NaN,NaN,NaN,NaN,NaN,NaN,NaN,NaN,NaN,NaN,NaN,NaN,NaN,NaN,NaN,NaN,NaN,NaN,NaN,NaN,NaN,NaN,NaN,NaN,NaN,NaN,NaN,NaN,NaN,NaN,NaN,NaN,NaN,NaN,NaN,NaN,NaN,NaN,NaN,NaN
NaN,NaN,NaN,NaN,NaN,NaN,NaN,NaN,NaN,NaN,NaN,NaN,NaN,NaN,NaN,NaN,NaN,NaN,NaN,NaN,NaN,NaN,NaN,NaN,NaN,NaN,NaN,NaN,NaN,NaN,NaN,NaN,NaN,NaN,NaN,NaN,NaN,NaN,NaN,NaN,NaN,NaN,NaN,NaN,NaN,NaN,NaN,NaN,NaN,NaN,NaN,NaN,NaN,NaN,NaN,NaN,NaN,NaN,NaN,NaN,NaN,NaN,NaN,NaN,NaN,NaN,NaN,NaN,NaN,NaN,NaN,NaN,NaN,NaN,NaN,NaN,NaN,NaN,4.86,8.04,22.32,35.81,39.68,62.0,67.06,72.32,67.06,57.14,67.06,95.33,108.03,95.33,89.28,95.33,101.58,114.68,121.52,135.81,150.88,143.25,143.25,166.76,166.76,135.81,128.56,135.81,143.25,143.25,143.25,135.81,135.81,143.25,150.88,174.99,200.88,200.88,200.88,219.13,200.88,200.88,219.13,228.56,228.56,228.56,238.18,238.18,238.18,248.0,278.65,278.65,289.27,300.08,300.08,311.09,322.3,345.32,369.12,393.73,369.12,357.12,345.32,322.3,322.3,322.3,345.32,345.32,333.71,322.3,322.3,322.3,333.71,345.32,393.73,393.73,393.73,458.7,445.31,419.12,419.12,419.12,406.32,406.32,406.32,419.12,445.31,432.12,419.12,406.32,381.33,357.12,345.32,333.71,322.3,311.09,300.08,289.27,278.65,278.65,278.65,268.24,268.24,268.24,268.24,268.24,278.65,278.65,278.65,289.27,311.09,311.09,289.27,248.0,248.0,258.02,258.02,258.02,258.02,268.24,268.24,268.24,258.02,268.24,278.65,300.08,311.09,333.71,345.32,345.32,322.3,322.3,300.08,278.65,268.24,258.02,258.02,248.0,238.18,228.56,228.56,219.13,219.13,219.13,219.13,219.13,219.13,219.13,219.13,219.13,228.56,228.56,238.18,228.56,228.56,228.56,238.18,238.18,238.18,248.0,248.0,248.0,258.02,258.02,258.02,258.02,258.02,258.02,258.02,258.02,258.02,248.0,238.18,219.13,219.13,209.91,228.56,228.56,268.24,311.09,322.3,300.08,238.18,209.91,158.72,114.68,114.68,95.33,89.28,89.28,108.03,89.28,83.43,95.33,95.33,77.77,67.06,67.06,67.06,67.06,72.32,72.32,77.77,83.43,89.28,95.33,101.58,114.68,121.52,135.81,150.88,166.76,183.42,200.88,219.13,248.0,268.24,300.08,333.71,369.12,445.31,543.22,634.88,667.02,683.39,683.39,699.96,821.48,876.53,876.53,839.63,803.52,768.21,699.96,603.53,558.0,528.64,514.25,500.07,472.29,432.12,445.31,486.08,445.31,393.73,345.32,311.09,311.09,333.71,381.33,393.73,357.12,419.12,500.07,209.91,52.48,48.01,357.12,166.76,4.86,2.48,2.48,2.48,0.4,NaN,NaN,NaN,NaN,NaN,NaN,NaN,NaN,NaN,NaN,NaN,NaN,NaN,NaN,NaN,NaN,NaN,NaN,NaN,NaN,NaN,NaN,NaN,NaN,NaN,NaN,NaN,NaN,NaN,NaN,NaN,NaN,NaN,NaN,NaN,NaN,NaN,NaN,NaN,NaN,NaN,NaN,NaN,NaN,NaN,NaN,NaN,NaN,NaN,NaN,NaN,NaN,NaN,NaN,NaN,NaN,NaN,NaN,NaN,NaN,NaN,NaN,NaN,NaN
NaN,NaN,NaN,NaN,NaN,NaN,NaN,NaN,NaN,NaN,NaN,NaN,NaN,NaN,NaN,NaN,NaN,NaN,NaN,NaN,NaN,NaN,NaN,NaN,NaN,NaN,NaN,NaN,NaN,NaN,NaN,NaN,NaN,NaN,NaN,NaN,NaN,NaN,NaN,NaN,NaN,NaN,NaN,NaN,NaN,NaN,NaN,NaN,NaN,NaN,NaN,NaN,NaN,NaN,NaN,NaN,NaN,NaN,NaN,NaN,NaN,NaN,NaN,NaN,NaN,NaN,NaN,NaN,NaN,NaN,NaN,NaN,NaN,NaN,NaN,NaN,0.89,8.04,8.04,22.32,43.75,67.06,72.32,77.77,95.33,101.58,108.03,83.43,77.77,108.03,128.56,108.03,101.58,108.03,108.03,150.88,174.99,150.88,128.56,114.68,121.52,150.88,135.81,128.56,158.72,183.42,183.42,166.76,158.72,150.88,143.25,143.25,150.88,150.88,166.76,166.76,174.99,192.05,192.05,200.88,228.56,209.91,219.13,219.13,228.56,228.56,238.18,248.0,258.02,268.24,268.24,268.24,289.27,300.08,322.3,357.12,357.12,345.32,333.71,333.71,333.71,311.09,300.08,300.08,311.09,311.09,322.3,311.09,322.3,333.71,333.71,333.71,345.32,357.12,369.12,406.32,419.12,393.73,445.31,419.12,393.73,406.32,419.12,393.73,406.32,419.12,419.12,393.73,369.12,357.12,357.12,333.71,311.09,300.08,300.08,289.27,289.27,289.27,300.08,289.27,289.27,278.65,278.65,278.65,289.27,311.09,322.3,322.3,333.71,300.08,268.24,258.02,248.0,248.0,248.0,248.0,248.0,248.0,258.02,258.02,258.02,258.02,268.24,278.65,300.08,322.3,333.71,357.12,345.32,322.3,311.09,289.27,278.65,278.65,258.02,258.02,248.0,238.18,228.56,219.13,219.13,219.13,219.13,219.13,219.13,219.13,219.13,228.56,228.56,238.18,238.18,238.18,228.56,228.56,238.18,238.18,238.18,248.0,248.0,248.0,248.0,258.02,258.02,248.0,248.0,248.0,258.02,258.02,258.02,248.0,248.0,258.02,248.0,238.18,258.02,248.0,289.27,311.09,345.32,289.27,248.0,248.0,209.91,150.88,150.88,121.52,101.58,95.33,128.56,108.03,89.28,95.33,89.28,77.77,72.32,67.06,67.06,72.32,72.32,77.77,83.43,89.28,95.33,101.58,108.03,114.68,128.56,143.25,150.88,166.76,192.05,209.91,228.56,258.02,278.65,311.09,345.32,381.33,406.32,486.08,572.98,699.96,803.52,839.63,821.48,914.23,1011.94,952.72,914.23,895.28,857.98,683.39,650.85,572.98,514.25,528.64,543.22,514.25,458.7,458.7,432.12,393.73,369.12,333.71,300.08,322.3,345.32,369.12,333.71,345.32,393.73,472.29,432.12,101.58,57.14,311.09,166.76,12.0,8.04,8.04,8.04,2.48,NaN,NaN,NaN,NaN,NaN,NaN,NaN,NaN,NaN,NaN,NaN,NaN,NaN,NaN,NaN,NaN,NaN,NaN,NaN,NaN,NaN,NaN,NaN,NaN,NaN,NaN,NaN,NaN,NaN,NaN,NaN,NaN,NaN,NaN,NaN,NaN,NaN,NaN,NaN,NaN,NaN,NaN,NaN,NaN,NaN,NaN,NaN,NaN,NaN,NaN,NaN,NaN,NaN,NaN,NaN,NaN,NaN,NaN,NaN,NaN,NaN,NaN,NaN,NaN
NaN,NaN,NaN,NaN,NaN,NaN,NaN,NaN,NaN,NaN,NaN,NaN,NaN,NaN,NaN,NaN,NaN,NaN,NaN,NaN,NaN,NaN,NaN,NaN,NaN,NaN,NaN,NaN,NaN,NaN,NaN,NaN,NaN,NaN,NaN,NaN,NaN,NaN,NaN,NaN,NaN,NaN,NaN,NaN,NaN,NaN,NaN,NaN,NaN,NaN,NaN,NaN,NaN,NaN,NaN,NaN,NaN,NaN,NaN,NaN,NaN,NaN,NaN,NaN,NaN,NaN,NaN,NaN,NaN,NaN,NaN,NaN,NaN,NaN,2.48,4.86,8.04,8.04,9.92,25.4,35.81,39.68,62.0,77.77,95.33,108.03,114.68,114.68,101.58,95.33,114.68,121.52,128.56,135.81,150.88,166.76,174.99,143.25,108.03,114.68,121.52,128.56,128.56,150.88,174.99,209.91,228.56,219.13,209.91,192.05,174.99,158.72,150.88,150.88,158.72,158.72,166.76,174.99,174.99,192.05,209.91,200.88,200.88,209.91,219.13,219.13,238.18,248.0,238.18,258.02,258.02,268.24,268.24,278.65,300.08,333.71,357.12,322.3,300.08,300.08,300.08,300.08,300.08,311.09,311.09,322.3,333.71,322.3,333.71,357.12,369.12,357.12,345.32,345.32,357.12,357.12,369.12,369.12,406.32,393.73,381.33,393.73,419.12,393.73,419.12,419.12,406.32,381.33,357.12,357.12,345.32,322.3,322.3,333.71,322.3,311.09,311.09,300.08,300.08,289.27,278.65,289.27,300.08,289.27,278.65,289.27,311.09,333.71,345.32,300.08,278.65,289.27,268.24,268.24,258.02,258.02,258.02,258.02,258.02,258.02,268.24,268.24,268.24,268.24,278.65,300.08,311.09,345.32,345.32,333.71,322.3,311.09,300.08,289.27,268.24,258.02,248.0,238.18,228.56,228.56,238.18,228.56,228.56,228.56,228.56,228.56,228.56,228.56,228.56,238.18,238.18,238.18,228.56,228.56,228.56,238.18,238.18,238.18,238.18,248.0,248.0,248.0,248.0,248.0,248.0,248.0,248.0,258.02,258.02,258.02,258.02,268.24,268.24,268.24,278.65,268.24,300.08,322.3,300.08,278.65,289.27,278.65,228.56,183.42,192.05,158.72,114.68,108.03,135.81,114.68,101.58,108.03,89.28,83.43,77.77,77.77,72.32,72.32,77.77,83.43,89.28,95.33,101.58,108.03,114.68,121.52,128.56,143.25,158.72,174.99,192.05,209.91,238.18,258.02,278.65,300.08,333.71,381.33,432.12,472.29,528.64,634.88,750.85,821.48,895.28,895.28,857.98,857.98,895.28,839.63,716.72,667.02,634.88,588.16,558.0,588.16,603.53,558.0,514.25,472.29,432.12,357.12,345.32,322.3,300.08,311.09,311.09,300.08,289.27,322.3,311.09,369.12,333.71,300.08,121.52,48.01,35.81,22.32,16.76,16.76,9.92,3.57,NaN,NaN,NaN,NaN,NaN,NaN,NaN,NaN,NaN,NaN,NaN,NaN,NaN,NaN,NaN,NaN,NaN,NaN,NaN,NaN,NaN,NaN,NaN,NaN,NaN,NaN,NaN,NaN,NaN,NaN,NaN,NaN,NaN,NaN,NaN,NaN,NaN,NaN,NaN,NaN,NaN,NaN,NaN,NaN,NaN,NaN,NaN,NaN,NaN,NaN,NaN,NaN,NaN,NaN,NaN,NaN,NaN,NaN,NaN,NaN,NaN,NaN,NaN,NaN
NaN,NaN,NaN,NaN,NaN,NaN,NaN,NaN,NaN,NaN,NaN,NaN,NaN,NaN,NaN,NaN,NaN,NaN,NaN,NaN,NaN,NaN,NaN,NaN,NaN,NaN,NaN,NaN,NaN,NaN,NaN,NaN,NaN,NaN,NaN,NaN,NaN,NaN,NaN,NaN,NaN,NaN,NaN,NaN,NaN,NaN,NaN,NaN,NaN,NaN,NaN,NaN,NaN,NaN,NaN,NaN,NaN,NaN,NaN,NaN,NaN,NaN,NaN,NaN,NaN,NaN,NaN,NaN,NaN,NaN,NaN,NaN,3.57,12.0,16.76,9.92,12.0,14.28,9.92,9.92,16.76,25.4,32.14,43.75,72.32,89.28,101.58,114.68,128.56,95.33,95.33,101.58,95.33,135.81,158.72,158.72,135.81,121.52,108.03,135.81,150.88,158.72,150.88,174.99,192.05,200.88,209.91,219.13,228.56,228.56,209.91,174.99,166.76,158.72,158.72,158.72,166.76,166.76,174.99,183.42,192.05,192.05,192.05,200.88,209.91,219.13,228.56,248.0,238.18,258.02,268.24,268.24,268.24,289.27,289.27,300.08,322.3,311.09,289.27,289.27,289.27,289.27,300.08,333.71,333.71,333.71,357.12,333.71,345.32,369.12,393.73,381.33,369.12,369.12,369.12,381.33,381.33,369.12,369.12,369.12,369.12,406.32,419.12,406.32,445.31,432.12,406.32,369.12,345.32,322.3,322.3,322.3,333.71,357.12,345.32,333.71,311.09,300.08,289.27,289.27,289.27,289.27,311.09,322.3,289.27,300.08,311.09,322.3,311.09,300.08,311.09,300.08,300.08,278.65,268.24,278.65,278.65,278.65,268.24,268.24,278.65,278.65,278.65,278.65,278.65,289.27,300.08,322.3,333.71,357.12,345.32,322.3,311.09,289.27,278.65,268.24,258.02,238.18,238.18,238.18,238.18,238.18,238.18,228.56,228.56,228.56,228.56,228.56,228.56,228.56,228.56,238.18,238.18,238.18,228.56,228.56,238.18,238.18,238.18,248.0,248.0,248.0,248.0,248.0,248.0,248.0,238.18,248.0,258.02,268.24,278.65,289.27,300.08,311.09,311.09,289.27,333.71,311.09,278.65,278.65,268.24,311.09,278.65,219.13,248.0,200.88,128.56,121.52,143.25,121.52,114.68,108.03,95.33,89.28,89.28,83.43,77.77,77.77,83.43,83.43,89.28,95.33,101.58,114.68,121.52,128.56,135.81,143.25,158.72,174.99,192.05,209.91,228.56,248.0,268.24,300.08,322.3,357.12,381.33,406.32,558.0,667.02,733.68,785.76,821.48,750.85,785.76,857.98,895.28,821.48,733.68,716.72,716.72,667.02,634.88,667.02,683.39,588.16,543.22,486.08,432.12,381.33,345.32,333.71,311.09,289.27,289.27,278.65,289.27,311.09,278.65,322.3,228.56,192.05,89.28,67.06,39.68,25.4,25.4,35.81,16.76,6.35,0.0,NaN,219.13,NaN,NaN,NaN,NaN,NaN,NaN,NaN,NaN,NaN,NaN,NaN,NaN,NaN,NaN,NaN,NaN,NaN,NaN,NaN,NaN,NaN,NaN,NaN,NaN,NaN,NaN,NaN,NaN,NaN,NaN,NaN,NaN,NaN,NaN,NaN,NaN,NaN,NaN,NaN,NaN,NaN,NaN,NaN,NaN,NaN,NaN,NaN,NaN,NaN,NaN,NaN,NaN,NaN,NaN,NaN,NaN,NaN,NaN,NaN,NaN,NaN
NaN,NaN,NaN,NaN,NaN,NaN,NaN,NaN,NaN,NaN,NaN,NaN,NaN,NaN,NaN,NaN,NaN,NaN,NaN,NaN,NaN,NaN,NaN,NaN,NaN,NaN,NaN,NaN,NaN,NaN,NaN,NaN,NaN,NaN,NaN,NaN,NaN,NaN,NaN,NaN,NaN,NaN,NaN,NaN,NaN,NaN,NaN,NaN,NaN,NaN,NaN,NaN,NaN,NaN,NaN,NaN,NaN,NaN,NaN,NaN,NaN,NaN,NaN,NaN,NaN,NaN,0.0,0.4,0.89,3.57,8.04,16.76,25.4,43.75,39.68,43.75,48.01,43.75,48.01,43.75,52.48,67.06,67.06,67.06,67.06,72.32,72.32,83.43,95.33,89.28,83.43,83.43,89.28,108.03,121.52,121.52,114.68,114.68,128.56,158.72,183.42,192.05,200.88,183.42,209.91,219.13,209.91,228.56,248.0,248.0,258.02,219.13,183.42,174.99,166.76,166.76,166.76,166.76,174.99,183.42,183.42,192.05,200.88,200.88,209.91,209.91,219.13,228.56,238.18,248.0,248.0,268.24,278.65,289.27,311.09,322.3,311.09,289.27,278.65,278.65,289.27,289.27,311.09,333.71,357.12,333.71,369.12,357.12,369.12,381.33,406.32,406.32,393.73,381.33,393.73,406.32,406.32,393.73,393.73,393.73,406.32,406.32,406.32,432.12,432.12,406.32,381.33,357.12,322.3,311.09,311.09,311.09,333.71,369.12,369.12,345.32,345.32,333.71,311.09,311.09,311.09,300.08,300.08,311.09,300.08,300.08,300.08,311.09,300.08,300.08,311.09,300.08,300.08,289.27,268.24,278.65,289.27,300.08,278.65,278.65,278.65,278.65,278.65,278.65,289.27,300.08,322.3,333.71,345.32,369.12,345.32,333.71,311.09,300.08,300.08,268.24,258.02,248.0,248.0,248.0,248.0,248.0,238.18,238.18,228.56,228.56,228.56,238.18,238.18,238.18,238.18,248.0,238.18,238.18,228.56,228.56,228.56,238.18,238.18,238.18,248.0,248.0,248.0,248.0,238.18,248.0,238.18,238.18,248.0,258.02,278.65,311.09,322.3,311.09,322.3,322.3,333.71,333.71,278.65,311.09,322.3,322.3,333.71,248.0,289.27,192.05,174.99,135.81,150.88,135.81,121.52,108.03,101.58,101.58,95.33,89.28,89.28,83.43,83.43,89.28,89.28,101.58,108.03,114.68,121.52,135.81,135.81,143.25,158.72,174.99,192.05,209.91,219.13,238.18,268.24,289.27,311.09,333.71,357.12,406.32,458.7,528.64,603.53,699.96,750.85,733.68,768.21,821.48,876.53,876.53,839.63,821.48,821.48,768.21,750.85,716.72,667.02,634.88,588.16,500.07,445.31,393.73,369.12,345.32,322.3,300.08,278.65,268.24,258.02,289.27,278.65,278.65,278.65,200.88,135.81,135.81,62.0,43.75,43.75,77.77,83.43,62.0,16.76,8.04,8.04,1.59,3.57,0.0,NaN,NaN,NaN,NaN,NaN,NaN,NaN,NaN,NaN,NaN,NaN,NaN,NaN,NaN,NaN,NaN,NaN,NaN,NaN,NaN,NaN,NaN,NaN,NaN,NaN,NaN,NaN,NaN,NaN,NaN,NaN,NaN,NaN,NaN,NaN,NaN,NaN,NaN,NaN,NaN,NaN,NaN,NaN,NaN,NaN,NaN,NaN,NaN,NaN,NaN,NaN,NaN,NaN,NaN,NaN,NaN,NaN,NaN
NaN,NaN,NaN,NaN,NaN,NaN,NaN,NaN,NaN,NaN,NaN,NaN,NaN,NaN,NaN,NaN,NaN,NaN,NaN,NaN,NaN,NaN,NaN,NaN,NaN,NaN,NaN,NaN,NaN,NaN,NaN,NaN,NaN,NaN,NaN,NaN,NaN,NaN,NaN,NaN,NaN,NaN,NaN,NaN,NaN,NaN,NaN,NaN,NaN,NaN,NaN,NaN,NaN,NaN,NaN,NaN,NaN,0.89,2.48,0.4,NaN,NaN,NaN,NaN,2.48,4.86,12.0,14.28,19.44,32.14,35.81,43.75,57.14,77.77,72.32,83.43,83.43,77.77,95.33,89.28,89.28,108.03,121.52,95.33,95.33,101.58,89.28,89.28,89.28,95.33,95.33,95.33,95.33,101.58,114.68,108.03,108.03,135.81,158.72,174.99,219.13,238.18,228.56,200.88,219.13,248.0,238.18,228.56,268.24,268.24,268.24,258.02,219.13,200.88,183.42,174.99,174.99,183.42,183.42,183.42,200.88,209.91,228.56,209.91,209.91,209.91,219.13,238.18,248.0,248.0,248.0,268.24,278.65,278.65,289.27,311.09,300.08,278.65,278.65,278.65,278.65,289.27,300.08,311.09,333.71,357.12,345.32,369.12,393.73,406.32,432.12,445.31,419.12,393.73,406.32,419.12,432.12,419.12,419.12,406.32,419.12,419.12,445.31,419.12,406.32,393.73,369.12,345.32,322.3,322.3,333.71,333.71,345.32,369.12,381.33,381.33,381.33,369.12,345.32,322.3,322.3,300.08,311.09,311.09,311.09,311.09,300.08,300.08,300.08,311.09,300.08,311.09,289.27,268.24,278.65,278.65,289.27,300.08,322.3,300.08,300.08,289.27,289.27,289.27,289.27,311.09,333.71,345.32,345.32,381.33,357.12,345.32,333.71,322.3,311.09,289.27,268.24,258.02,258.02,258.02,258.02,248.0,248.0,238.18,238.18,228.56,228.56,238.18,238.18,258.02,278.65,268.24,258.02,258.02,238.18,228.56,228.56,228.56,238.18,228.56,228.56,238.18,238.18,238.18,228.56,238.18,238.18,228.56,238.18,258.02,289.27,322.3,311.09,300.08,311.09,311.09,333.71,333.71,300.08,311.09,357.12,322.3,289.27,238.18,238.18,219.13,174.99,143.25,166.76,143.25,121.52,114.68,108.03,108.03,101.58,101.58,95.33,83.43,83.43,89.28,95.33,101.58,108.03,114.68,121.52,135.81,143.25,150.88,158.72,166.76,183.42,200.88,219.13,228.56,248.0,278.65,300.08,311.09,333.71,369.12,393.73,432.12,486.08,514.25,634.88,683.39,733.68,821.48,857.98,895.28,914.23,895.28,876.53,768.21,750.85,716.72,699.96,667.02,588.16,514.25,445.31,406.32,393.73,357.12,333.71,322.3,333.71,289.27,268.24,248.0,238.18,278.65,289.27,289.27,300.08,333.71,114.68,95.33,43.75,72.32,83.43,128.56,52.48,32.14,25.4,14.28,62.0,12.0,0.89,NaN,NaN,NaN,NaN,NaN,NaN,NaN,NaN,NaN,NaN,NaN,NaN,NaN,NaN,NaN,NaN,NaN,NaN,NaN,NaN,NaN,NaN,NaN,NaN,NaN,NaN,NaN,NaN,NaN,NaN,NaN,NaN,NaN,NaN,NaN,NaN,NaN,NaN,NaN,NaN,NaN,NaN,NaN,NaN,NaN,NaN,NaN,NaN,NaN,NaN,NaN,NaN,NaN,NaN,NaN,NaN,NaN
NaN,NaN,NaN,NaN,NaN,NaN,NaN,NaN,NaN,NaN,NaN,NaN,NaN,NaN,NaN,NaN,NaN,NaN,NaN,NaN,NaN,NaN,NaN,NaN,NaN,NaN,NaN,NaN,NaN,NaN,NaN,NaN,NaN,NaN,NaN,NaN,NaN,NaN,NaN,NaN,NaN,NaN,NaN,NaN,NaN,NaN,NaN,NaN,NaN,NaN,NaN,NaN,NaN,NaN,NaN,NaN,3.57,6.35,6.35,8.04,8.04,4.86,6.35,9.92,22.32,35.81,39.68,43.75,48.01,67.06,77.77,77.77,77.77,95.33,114.68,114.68,114.68,114.68,121.52,128.56,128.56,150.88,143.25,128.56,128.56,128.56,135.81,121.52,128.56,121.52,121.52,121.52,128.56,135.81,128.56,135.81,143.25,166.76,192.05,219.13,238.18,268.24,248.0,228.56,228.56,258.02,268.24,238.18,248.0,268.24,289.27,268.24,238.18,228.56,209.91,200.88,192.05,192.05,183.42,192.05,209.91,248.0,268.24,238.18,219.13,228.56,228.56,238.18,248.0,258.02,268.24,278.65,278.65,278.65,289.27,311.09,289.27,278.65,278.65,278.65,278.65,278.65,300.08,322.3,345.32,369.12,381.33,369.12,369.12,393.73,406.32,432.12,432.12,432.12,419.12,445.31,458.7,432.12,445.31,419.12,419.12,406.32,406.32,393.73,393.73,369.12,345.32,345.32,322.3,345.32,369.12,369.12,369.12,369.12,381.33,393.73,393.73,369.12,345.32,333.71,322.3,322.3,311.09,322.3,322.3,322.3,311.09,300.08,300.08,289.27,300.08,311.09,300.08,289.27,278.65,278.65,289.27,300.08,300.08,311.09,300.08,300.08,300.08,300.08,300.08,311.09,333.71,369.12,369.12,432.12,381.33,369.12,357.12,345.32,333.71,311.09,289.27,278.65,268.24,268.24,258.02,258.02,248.0,248.0,238.18,238.18,238.18,248.0,268.24,268.24,278.65,278.65,289.27,278.65,258.02,238.18,219.13,228.56,228.56,228.56,228.56,228.56,228.56,228.56,219.13,228.56,228.56,228.56,238.18,258.02,278.65,300.08,311.09,300.08,289.27,322.3,333.71,333.71,322.3,345.32,345.32,333.71,311.09,258.02,200.88,192.05,166.76,158.72,174.99,150.88,135.81,121.52,121.52,114.68,114.68,108.03,101.58,89.28,83.43,89.28,95.33,101.58,108.03,114.68,121.52,128.56,135.81,143.25,150.88,166.76,174.99,183.42,200.88,219.13,238.18,268.24,289.27,300.08,322.3,345.32,357.12,393.73,419.12,458.7,543.22,603.53,683.39,733.68,803.52,839.63,821.48,821.48,803.52,716.72,733.68,716.72,699.96,634.88,572.98,514.25,445.31,432.12,393.73,369.12,333.71,345.32,345.32,333.71,311.09,268.24,238.18,278.65,258.02,268.24,300.08,268.24,219.13,143.25,52.48,62.0,101.58,143.25,95.33,183.42,95.33,89.28,62.0,35.81,12.0,1.59,NaN,14.28,NaN,NaN,NaN,22.32,NaN,NaN,NaN,NaN,NaN,NaN,NaN,NaN,NaN,NaN,NaN,NaN,NaN,NaN,NaN,NaN,NaN,NaN,NaN,NaN,NaN,NaN,NaN,NaN,NaN,NaN,NaN,NaN,NaN,NaN,NaN,NaN,NaN,NaN,NaN,NaN,NaN,NaN,NaN,NaN,NaN,NaN,NaN,NaN,NaN,NaN,NaN,NaN,NaN,NaN
NaN,NaN,NaN,NaN,NaN,NaN,NaN,NaN,NaN,NaN,NaN,NaN,NaN,NaN,NaN,NaN,NaN,NaN,NaN,NaN,NaN,NaN,NaN,NaN,NaN,NaN,NaN,NaN,NaN,NaN,NaN,NaN,NaN,NaN,NaN,NaN,NaN,NaN,NaN,NaN,NaN,NaN,NaN,NaN,NaN,NaN,NaN,NaN,NaN,NaN,NaN,NaN,NaN,NaN,NaN,3.57,4.86,9.92,12.0,16.76,25.4,19.44,32.14,39.68,48.01,67.06,77.77,83.43,72.32,101.58,114.68,101.58,114.68,121.52,143.25,150.88,143.25,135.81,135.81,150.88,166.76,183.42,174.99,158.72,158.72,150.88,150.88,166.76,166.76,150.88,150.88,143.25,158.72,174.99,150.88,174.99,166.76,183.42,209.91,238.18,238.18,268.24,268.24,268.24,258.02,258.02,289.27,268.24,258.02,289.27,300.08,278.65,278.65,268.24,248.0,238.18,219.13,200.88,192.05,192.05,209.91,248.0,278.65,238.18,248.0,258.02,238.18,238.18,248.0,268.24,289.27,300.08,311.09,289.27,300.08,311.09,289.27,278.65,278.65,278.65,278.65,278.65,300.08,322.3,333.71,369.12,419.12,406.32,381.33,369.12,381.33,406.32,432.12,445.31,432.12,432.12,445.31,432.12,445.31,406.32,406.32,406.32,406.32,381.33,381.33,357.12,333.71,333.71,333.71,357.12,369.12,393.73,393.73,393.73,406.32,419.12,406.32,381.33,357.12,345.32,357.12,345.32,333.71,333.71,333.71,345.32,357.12,345.32,333.71,311.09,311.09,311.09,311.09,300.08,289.27,289.27,300.08,300.08,311.09,311.09,311.09,311.09,311.09,300.08,300.08,311.09,333.71,369.12,381.33,445.31,419.12,393.73,381.33,369.12,345.32,333.71,311.09,289.27,278.65,278.65,268.24,268.24,258.02,248.0,238.18,238.18,248.0,258.02,258.02,258.02,258.02,278.65,311.09,289.27,278.65,248.0,219.13,219.13,228.56,219.13,209.91,219.13,228.56,219.13,219.13,219.13,209.91,228.56,238.18,248.0,268.24,278.65,289.27,289.27,278.65,311.09,322.3,345.32,381.33,393.73,369.12,345.32,300.08,268.24,248.0,209.91,183.42,174.99,183.42,158.72,143.25,135.81,128.56,128.56,121.52,114.68,108.03,89.28,89.28,95.33,95.33,101.58,101.58,114.68,114.68,128.56,135.81,135.81,150.88,166.76,166.76,174.99,192.05,209.91,238.18,258.02,258.02,289.27,311.09,311.09,333.71,357.12,369.12,419.12,472.29,472.29,572.98,619.11,733.68,803.52,803.52,785.76,803.52,667.02,699.96,683.39,634.88,603.53,588.16,558.0,634.88,500.07,445.31,393.73,357.12,322.3,333.71,357.12,311.09,268.24,258.02,248.0,238.18,248.0,228.56,322.3,458.7,219.13,72.32,72.32,114.68,89.28,108.03,135.81,192.05,121.52,67.06,57.14,35.81,16.76,12.0,43.75,4.86,NaN,NaN,22.32,NaN,NaN,NaN,NaN,NaN,NaN,NaN,NaN,NaN,NaN,NaN,NaN,NaN,NaN,NaN,NaN,NaN,NaN,NaN,NaN,NaN,NaN,NaN,NaN,NaN,NaN,NaN,NaN,NaN,NaN,NaN,NaN,NaN,NaN,NaN,NaN,NaN,NaN,NaN,NaN,NaN,NaN,NaN,NaN,NaN,NaN,NaN,NaN,NaN,NaN
NaN,NaN,NaN,NaN,NaN,NaN,NaN,NaN,NaN,NaN,NaN,NaN,NaN,NaN,NaN,NaN,NaN,NaN,NaN,NaN,NaN,NaN,NaN,NaN,NaN,NaN,NaN,NaN,NaN,NaN,NaN,NaN,NaN,NaN,NaN,NaN,NaN,NaN,NaN,NaN,NaN,NaN,NaN,NaN,NaN,NaN,NaN,NaN,NaN,NaN,NaN,0.4,0.89,1.59,2.48,6.35,9.92,25.4,19.44,22.32,32.14,43.75,67.06,67.06,77.77,101.58,108.03,121.52,114.68,128.56,143.25,143.25,150.88,150.88,174.99,183.42,183.42,183.42,174.99,150.88,158.72,166.76,174.99,183.42,183.42,174.99,183.42,192.05,200.88,183.42,192.05,174.99,166.76,192.05,174.99,192.05,209.91,200.88,192.05,209.91,228.56,238.18,248.0,278.65,289.27,278.65,278.65,268.24,278.65,289.27,300.08,311.09,311.09,300.08,278.65,278.65,268.24,248.0,228.56,209.91,219.13,228.56,238.18,228.56,238.18,278.65,268.24,258.02,248.0,278.65,300.08,322.3,333.71,311.09,322.3,322.3,278.65,278.65,278.65,278.65,268.24,278.65,311.09,357.12,369.12,393.73,419.12,406.32,393.73,357.12,357.12,381.33,393.73,419.12,406.32,419.12,419.12,432.12,419.12,419.12,432.12,419.12,393.73,369.12,381.33,357.12,333.71,345.32,357.12,357.12,369.12,381.33,406.32,393.73,393.73,381.33,393.73,393.73,381.33,369.12,369.12,369.12,357.12,357.12,345.32,345.32,357.12,369.12,369.12,345.32,345.32,345.32,357.12,345.32,311.09,311.09,311.09,311.09,311.09,322.3,322.3,322.3,322.3,311.09,311.09,311.09,322.3,345.32,357.12,393.73,432.12,432.12,406.32,381.33,345.32,333.71,311.09,300.08,289.27,278.65,278.65,268.24,268.24,258.02,248.0,238.18,248.0,248.0,248.0,258.02,258.02,289.27,300.08,289.27,268.24,248.0,219.13,219.13,219.13,209.91,209.91,209.91,219.13,219.13,209.91,209.91,209.91,219.13,228.56,228.56,248.0,258.02,268.24,278.65,289.27,300.08,322.3,357.12,393.73,419.12,393.73,357.12,322.3,289.27,278.65,248.0,219.13,209.91,192.05,166.76,150.88,143.25,135.81,135.81,128.56,121.52,114.68,95.33,89.28,101.58,95.33,95.33,101.58,121.52,121.52,121.52,121.52,128.56,135.81,150.88,174.99,183.42,192.05,209.91,228.56,238.18,248.0,268.24,289.27,311.09,333.71,357.12,381.33,381.33,406.32,445.31,514.25,572.98,683.39,750.85,733.68,733.68,750.85,667.02,650.85,683.39,650.85,683.39,716.72,699.96,619.11,500.07,419.12,357.12,345.32,322.3,357.12,357.12,345.32,300.08,322.3,289.27,238.18,228.56,200.88,345.32,322.3,357.12,108.03,72.32,108.03,150.88,200.88,174.99,200.88,209.91,135.81,95.33,135.81,128.56,25.4,108.03,108.03,72.32,4.86,NaN,12.0,NaN,NaN,NaN,NaN,NaN,NaN,NaN,NaN,NaN,NaN,NaN,NaN,NaN,NaN,NaN,NaN,NaN,NaN,NaN,NaN,NaN,NaN,NaN,NaN,NaN,NaN,NaN,NaN,NaN,NaN,NaN,NaN,NaN,NaN,NaN,NaN,NaN,NaN,NaN,NaN,NaN,NaN,NaN,NaN,NaN,NaN,NaN,NaN,NaN
NaN,NaN,NaN,NaN,NaN,NaN,NaN,NaN,NaN,NaN,NaN,NaN,NaN,NaN,NaN,NaN,NaN,NaN,NaN,NaN,NaN,NaN,NaN,NaN,NaN,NaN,NaN,NaN,NaN,NaN,NaN,NaN,NaN,NaN,0.0,NaN,NaN,NaN,NaN,NaN,NaN,NaN,NaN,NaN,NaN,NaN,NaN,NaN,1.59,2.48,4.86,6.35,8.04,12.0,14.28,22.32,28.67,25.4,25.4,28.67,48.01,48.01,67.06,89.28,101.58,128.56,150.88,158.72,183.42,174.99,183.42,183.42,166.76,192.05,200.88,219.13,228.56,219.13,219.13,200.88,192.05,192.05,183.42,174.99,174.99,192.05,200.88,209.91,219.13,219.13,219.13,200.88,192.05,192.05,209.91,200.88,219.13,238.18,228.56,238.18,219.13,258.02,248.0,278.65,289.27,300.08,289.27,268.24,268.24,268.24,278.65,278.65,311.09,300.08,289.27,311.09,311.09,278.65,258.02,248.0,248.0,228.56,228.56,228.56,238.18,258.02,278.65,278.65,258.02,268.24,322.3,322.3,322.3,333.71,333.71,311.09,289.27,278.65,289.27,289.27,289.27,289.27,311.09,357.12,369.12,406.32,419.12,393.73,393.73,357.12,345.32,357.12,369.12,381.33,406.32,393.73,406.32,406.32,393.73,406.32,406.32,393.73,381.33,357.12,357.12,333.71,333.71,345.32,345.32,345.32,345.32,357.12,369.12,357.12,357.12,369.12,381.33,406.32,393.73,381.33,406.32,393.73,381.33,369.12,369.12,345.32,357.12,381.33,419.12,381.33,381.33,357.12,369.12,381.33,345.32,333.71,333.71,333.71,333.71,333.71,333.71,333.71,322.3,322.3,322.3,322.3,322.3,333.71,357.12,369.12,406.32,445.31,406.32,369.12,357.12,333.71,322.3,311.09,300.08,289.27,289.27,278.65,268.24,258.02,248.0,248.0,248.0,248.0,248.0,258.02,268.24,289.27,300.08,278.65,258.02,248.0,228.56,219.13,219.13,209.91,209.91,200.88,200.88,200.88,200.88,200.88,209.91,219.13,219.13,228.56,238.18,258.02,278.65,278.65,322.3,311.09,322.3,357.12,393.73,393.73,381.33,345.32,345.32,300.08,311.09,300.08,248.0,219.13,200.88,174.99,158.72,150.88,143.25,143.25,135.81,121.52,108.03,95.33,95.33,101.58,108.03,101.58,101.58,108.03,128.56,121.52,128.56,128.56,135.81,143.25,158.72,183.42,200.88,200.88,219.13,219.13,238.18,248.0,258.02,278.65,300.08,311.09,333.71,345.32,369.12,432.12,486.08,543.22,619.11,634.88,603.53,634.88,683.39,619.11,650.85,650.85,634.88,558.0,619.11,558.0,432.12,406.32,345.32,322.3,300.08,311.09,333.71,333.71,357.12,345.32,381.33,322.3,333.71,289.27,200.88,209.91,228.56,322.3,278.65,114.68,150.88,192.05,228.56,200.88,258.02,258.02,209.91,174.99,219.13,114.68,52.48,25.4,39.68,158.72,57.14,2.48,NaN,NaN,NaN,NaN,NaN,NaN,NaN,NaN,NaN,NaN,NaN,NaN,NaN,NaN,NaN,NaN,NaN,NaN,NaN,NaN,NaN,NaN,NaN,NaN,NaN,NaN,NaN,NaN,NaN,NaN,NaN,NaN,NaN,NaN,NaN,NaN,NaN,NaN,NaN,NaN,NaN,NaN,NaN,NaN,NaN,NaN,NaN,NaN,NaN,NaN
NaN,NaN,NaN,NaN,NaN,NaN,NaN,NaN,NaN,NaN,NaN,NaN,NaN,NaN,NaN,NaN,NaN,NaN,NaN,NaN,NaN,NaN,NaN,NaN,NaN,NaN,NaN,NaN,NaN,NaN,NaN,NaN,0.0,NaN,12.0,NaN,NaN,NaN,NaN,NaN,NaN,NaN,NaN,NaN,NaN,NaN,3.57,9.92,12.0,12.0,14.28,19.44,22.32,32.14,43.75,52.48,43.75,39.68,39.68,39.68,39.68,43.75,57.14,67.06,89.28,101.58,128.56,166.76,166.76,183.42,209.91,192.05,200.88,228.56,228.56,248.0,248.0,248.0,238.18,238.18,238.18,228.56,209.91,209.91,192.05,183.42,192.05,228.56,228.56,228.56,228.56,228.56,219.13,228.56,238.18,228.56,238.18,248.0,258.02,258.02,248.0,248.0,248.0,258.02,268.24,278.65,278.65,258.02,248.0,268.24,300.08,300.08,289.27,289.27,300.08,311.09,322.3,322.3,311.09,300.08,278.65,258.02,228.56,238.18,258.02,258.02,289.27,300.08,278.65,268.24,300.08,322.3,357.12,345.32,333.71,300.08,278.65,278.65,289.27,311.09,333.71,322.3,333.71,345.32,357.12,369.12,381.33,381.33,381.33,369.12,357.12,357.12,369.12,381.33,419.12,393.73,393.73,393.73,393.73,381.33,381.33,381.33,369.12,345.32,345.32,357.12,345.32,345.32,357.12,357.12,357.12,357.12,357.12,369.12,381.33,381.33,369.12,393.73,419.12,406.32,406.32,419.12,393.73,381.33,357.12,357.12,357.12,369.12,393.73,406.32,406.32,369.12,393.73,369.12,357.12,357.12,345.32,345.32,357.12,357.12,345.32,345.32,333.71,333.71,322.3,322.3,333.71,345.32,369.12,393.73,419.12,472.29,445.31,393.73,369.12,357.12,333.71,333.71,311.09,311.09,300.08,300.08,289.27,268.24,258.02,248.0,248.0,248.0,258.02,258.02,258.02,268.24,278.65,268.24,258.02,258.02,238.18,209.91,209.91,209.91,200.88,200.88,200.88,209.91,200.88,200.88,209.91,219.13,228.56,238.18,238.18,248.0,268.24,300.08,300.08,311.09,322.3,357.12,369.12,406.32,393.73,393.73,357.12,322.3,345.32,345.32,258.02,258.02,209.91,183.42,166.76,158.72,158.72,150.88,143.25,128.56,108.03,108.03,101.58,101.58,108.03,108.03,108.03,114.68,128.56,135.81,128.56,135.81,135.81,143.25,150.88,166.76,183.42,192.05,209.91,209.91,219.13,219.13,238.18,258.02,278.65,289.27,300.08,333.71,357.12,381.33,406.32,458.7,486.08,472.29,500.07,572.98,588.16,619.11,699.96,650.85,588.16,603.53,500.07,445.31,406.32,369.12,357.12,333.71,300.08,289.27,278.65,278.65,278.65,311.09,322.3,278.65,278.65,268.24,238.18,219.13,200.88,258.02,369.12,158.72,135.81,108.03,108.03,150.88,268.24,381.33,333.71,289.27,258.02,228.56,135.81,22.32,3.57,43.75,43.75,16.76,NaN,3.57,NaN,NaN,NaN,NaN,NaN,NaN,NaN,NaN,NaN,NaN,NaN,NaN,NaN,NaN,NaN,NaN,NaN,NaN,NaN,NaN,NaN,NaN,NaN,NaN,NaN,NaN,NaN,NaN,NaN,NaN,NaN,NaN,NaN,NaN,NaN,NaN,NaN,NaN,NaN,NaN,NaN,NaN,NaN,NaN,NaN,NaN,NaN,NaN
NaN,NaN,NaN,NaN,NaN,NaN,NaN,NaN,NaN,NaN,NaN,NaN,NaN,NaN,NaN,NaN,NaN,NaN,NaN,NaN,NaN,NaN,NaN,NaN,NaN,NaN,NaN,NaN,NaN,NaN,NaN,NaN,8.04,NaN,19.44,NaN,NaN,NaN,NaN,NaN,NaN,NaN,NaN,NaN,NaN,3.57,9.92,16.76,22.32,25.4,25.4,32.14,35.81,52.48,77.77,72.32,72.32,57.14,52.48,52.48,52.48,52.48,57.14,62.0,67.06,83.43,95.33,121.52,143.25,166.76,150.88,158.72,183.42,183.42,200.88,228.56,228.56,238.18,248.0,258.02,258.02,258.02,248.0,238.18,219.13,209.91,192.05,192.05,192.05,219.13,228.56,238.18,209.91,258.02,268.24,258.02,258.02,268.24,278.65,268.24,278.65,268.24,268.24,258.02,268.24,268.24,248.0,258.02,289.27,311.09,333.71,322.3,322.3,289.27,278.65,289.27,300.08,322.3,333.71,333.71,322.3,300.08,268.24,268.24,268.24,268.24,278.65,322.3,300.08,278.65,289.27,322.3,357.12,381.33,357.12,322.3,300.08,289.27,289.27,311.09,345.32,333.71,357.12,345.32,369.12,345.32,369.12,393.73,369.12,369.12,357.12,393.73,406.32,419.12,381.33,381.33,393.73,393.73,393.73,381.33,369.12,381.33,357.12,345.32,357.12,381.33,369.12,369.12,381.33,393.73,393.73,393.73,369.12,381.33,381.33,393.73,381.33,381.33,393.73,406.32,432.12,432.12,406.32,393.73,369.12,369.12,369.12,369.12,381.33,393.73,406.32,393.73,393.73,369.12,369.12,369.12,357.12,369.12,369.12,357.12,345.32,345.32,345.32,345.32,333.71,322.3,333.71,357.12,406.32,458.7,472.29,445.31,486.08,472.29,393.73,369.12,369.12,333.71,322.3,333.71,311.09,322.3,300.08,278.65,258.02,258.02,258.02,258.02,258.02,258.02,258.02,258.02,268.24,278.65,268.24,258.02,228.56,219.13,200.88,200.88,200.88,200.88,200.88,200.88,200.88,200.88,209.91,209.91,219.13,228.56,248.0,248.0,258.02,268.24,278.65,300.08,322.3,369.12,381.33,393.73,419.12,345.32,333.71,300.08,357.12,369.12,289.27,258.02,209.91,200.88,183.42,174.99,166.76,150.88,135.81,128.56,121.52,114.68,108.03,108.03,108.03,108.03,114.68,114.68,128.56,143.25,135.81,135.81,143.25,143.25,150.88,158.72,166.76,183.42,192.05,192.05,200.88,228.56,238.18,248.0,258.02,278.65,300.08,345.32,311.09,322.3,345.32,432.12,393.73,406.32,393.73,514.25,528.64,543.22,588.16,572.98,528.64,558.0,486.08,445.31,393.73,357.12,345.32,322.3,311.09,289.27,268.24,258.02,248.0,268.24,311.09,258.02,238.18,248.0,300.08,238.18,174.99,166.76,158.72,238.18,192.05,135.81,108.03,143.25,192.05,345.32,381.33,472.29,432.12,311.09,108.03,43.75,12.0,NaN,NaN,NaN,NaN,NaN,NaN,NaN,NaN,NaN,NaN,NaN,NaN,NaN,NaN,NaN,NaN,NaN,NaN,NaN,NaN,NaN,NaN,NaN,NaN,NaN,NaN,NaN,NaN,NaN,NaN,NaN,NaN,NaN,NaN,NaN,NaN,NaN,NaN,NaN,NaN,NaN,NaN,NaN,NaN,NaN,NaN,NaN,NaN,NaN,NaN,NaN,NaN,NaN
NaN,NaN,NaN,NaN,NaN,NaN,NaN,NaN,NaN,NaN,NaN,NaN,NaN,NaN,NaN,NaN,NaN,NaN,NaN,NaN,3.57,NaN,NaN,NaN,NaN,NaN,NaN,NaN,NaN,NaN,NaN,NaN,4.86,12.0,0.89,0.89,9.92,12.0,0.89,NaN,NaN,0.1,0.89,4.86,4.86,14.28,16.76,25.4,32.14,35.81,39.68,48.01,57.14,72.32,95.33,101.58,83.43,83.43,67.06,67.06,62.0,67.06,72.32,77.77,77.77,83.43,89.28,95.33,128.56,135.81,128.56,135.81,143.25,143.25,158.72,192.05,219.13,219.13,219.13,238.18,248.0,268.24,278.65,258.02,248.0,238.18,228.56,228.56,219.13,209.91,209.91,209.91,228.56,238.18,248.0,258.02,258.02,278.65,289.27,268.24,278.65,289.27,289.27,289.27,278.65,268.24,258.02,268.24,300.08,322.3,333.71,333.71,333.71,345.32,333.71,311.09,268.24,278.65,311.09,333.71,333.71,322.3,322.3,322.3,311.09,300.08,289.27,300.08,278.65,278.65,311.09,322.3,345.32,369.12,381.33,369.12,333.71,311.09,322.3,333.71,333.71,333.71,322.3,322.3,345.32,333.71,333.71,357.12,345.32,357.12,357.12,393.73,393.73,393.73,369.12,369.12,381.33,381.33,369.12,369.12,357.12,381.33,369.12,345.32,345.32,381.33,393.73,393.73,393.73,381.33,369.12,393.73,393.73,393.73,406.32,419.12,406.32,381.33,381.33,393.73,432.12,445.31,432.12,406.32,381.33,393.73,381.33,393.73,381.33,393.73,419.12,419.12,419.12,393.73,381.33,393.73,381.33,381.33,381.33,381.33,357.12,357.12,357.12,357.12,345.32,345.32,333.71,345.32,357.12,406.32,445.31,486.08,514.25,514.25,458.7,419.12,369.12,345.32,357.12,345.32,333.71,357.12,322.3,289.27,278.65,268.24,268.24,268.24,258.02,268.24,268.24,268.24,278.65,278.65,268.24,248.0,248.0,228.56,209.91,209.91,200.88,200.88,200.88,200.88,200.88,200.88,200.88,209.91,219.13,228.56,238.18,238.18,248.0,268.24,278.65,300.08,322.3,345.32,357.12,381.33,369.12,369.12,345.32,333.71,381.33,393.73,322.3,289.27,258.02,228.56,200.88,192.05,192.05,174.99,150.88,135.81,135.81,128.56,121.52,114.68,114.68,114.68,121.52,121.52,128.56,143.25,143.25,143.25,143.25,143.25,150.88,158.72,166.76,174.99,183.42,192.05,200.88,209.91,219.13,228.56,248.0,268.24,289.27,278.65,268.24,289.27,322.3,357.12,357.12,357.12,381.33,445.31,472.29,486.08,486.08,514.25,514.25,528.64,486.08,445.31,406.32,393.73,333.71,311.09,300.08,278.65,268.24,258.02,238.18,238.18,248.0,228.56,200.88,228.56,268.24,183.42,174.99,209.91,200.88,357.12,289.27,192.05,150.88,143.25,166.76,278.65,289.27,322.3,432.12,419.12,289.27,72.32,57.14,8.04,NaN,NaN,NaN,NaN,NaN,NaN,NaN,NaN,NaN,NaN,NaN,NaN,NaN,NaN,NaN,NaN,NaN,NaN,NaN,NaN,NaN,NaN,NaN,NaN,NaN,NaN,NaN,NaN,NaN,NaN,NaN,NaN,NaN,NaN,NaN,NaN,NaN,NaN,NaN,NaN,NaN,NaN,NaN,NaN,NaN,NaN,NaN,NaN,NaN,NaN,NaN,NaN
NaN,NaN,NaN,NaN,NaN,NaN,NaN,NaN,NaN,NaN,NaN,NaN,NaN,NaN,NaN,NaN,NaN,NaN,NaN,NaN,22.32,NaN,NaN,NaN,NaN,NaN,NaN,NaN,NaN,NaN,NaN,0.89,3.57,12.0,25.4,12.0,28.67,16.76,4.86,2.48,3.57,3.57,8.04,14.28,35.81,32.14,28.67,35.81,43.75,48.01,57.14,67.06,72.32,89.28,108.03,114.68,108.03,101.58,83.43,83.43,77.77,101.58,89.28,95.33,101.58,114.68,114.68,121.52,158.72,121.52,121.52,135.81,143.25,143.25,150.88,174.99,183.42,200.88,238.18,258.02,258.02,258.02,258.02,268.24,268.24,258.02,258.02,258.02,248.0,238.18,248.0,228.56,219.13,219.13,248.0,248.0,258.02,258.02,268.24,268.24,268.24,258.02,268.24,278.65,289.27,258.02,278.65,278.65,311.09,322.3,300.08,322.3,322.3,333.71,333.71,322.3,322.3,278.65,278.65,322.3,345.32,322.3,311.09,333.71,311.09,311.09,311.09,278.65,268.24,289.27,322.3,345.32,345.32,345.32,357.12,381.33,381.33,369.12,333.71,333.71,333.71,345.32,322.3,311.09,322.3,333.71,345.32,357.12,357.12,381.33,369.12,393.73,381.33,357.12,345.32,345.32,357.12,369.12,357.12,345.32,345.32,369.12,369.12,345.32,333.71,357.12,369.12,393.73,393.73,357.12,345.32,369.12,369.12,381.33,381.33,381.33,393.73,393.73,393.73,393.73,406.32,432.12,445.31,406.32,406.32,419.12,406.32,406.32,393.73,393.73,406.32,419.12,445.31,419.12,406.32,406.32,393.73,393.73,393.73,406.32,369.12,369.12,369.12,357.12,357.12,357.12,357.12,345.32,357.12,369.12,381.33,458.7,500.07,500.07,514.25,445.31,393.73,419.12,419.12,369.12,369.12,406.32,333.71,300.08,278.65,278.65,268.24,268.24,268.24,278.65,268.24,268.24,278.65,278.65,268.24,248.0,238.18,228.56,219.13,209.91,209.91,200.88,200.88,200.88,200.88,200.88,209.91,219.13,219.13,219.13,228.56,238.18,248.0,258.02,278.65,289.27,311.09,345.32,381.33,393.73,406.32,406.32,369.12,381.33,406.32,419.12,445.31,289.27,322.3,289.27,219.13,209.91,238.18,192.05,166.76,150.88,143.25,143.25,135.81,128.56,121.52,121.52,121.52,128.56,128.56,143.25,150.88,150.88,143.25,143.25,150.88,158.72,158.72,166.76,174.99,192.05,209.91,209.91,209.91,219.13,248.0,258.02,238.18,258.02,278.65,278.65,289.27,300.08,322.3,345.32,393.73,432.12,458.7,445.31,445.31,472.29,472.29,486.08,486.08,419.12,406.32,381.33,357.12,311.09,289.27,278.65,258.02,238.18,228.56,228.56,228.56,209.91,200.88,192.05,183.42,158.72,200.88,258.02,322.3,393.73,381.33,345.32,192.05,135.81,135.81,150.88,174.99,248.0,345.32,406.32,619.11,228.56,101.58,48.01,NaN,NaN,NaN,NaN,NaN,NaN,NaN,NaN,NaN,NaN,NaN,NaN,NaN,NaN,NaN,NaN,NaN,NaN,NaN,NaN,NaN,NaN,NaN,NaN,NaN,NaN,NaN,NaN,NaN,NaN,NaN,NaN,NaN,NaN,NaN,NaN,NaN,NaN,NaN,NaN,NaN,NaN,NaN,NaN,NaN,NaN,NaN,NaN,NaN,NaN,NaN,NaN
NaN,NaN,NaN,NaN,NaN,NaN,NaN,NaN,NaN,NaN,NaN,NaN,NaN,NaN,NaN,NaN,NaN,NaN,NaN,NaN,NaN,NaN,NaN,NaN,NaN,NaN,NaN,NaN,4.86,4.86,12.0,14.28,19.44,35.81,43.75,39.68,48.01,43.75,32.14,16.76,12.0,14.28,19.44,39.68,52.48,62.0,43.75,48.01,57.14,62.0,67.06,83.43,95.33,108.03,114.68,128.56,135.81,121.52,101.58,101.58,143.25,158.72,121.52,135.81,128.56,143.25,158.72,174.99,228.56,166.76,158.72,158.72,166.76,158.72,166.76,192.05,219.13,209.91,219.13,248.0,258.02,268.24,268.24,278.65,289.27,278.65,268.24,278.65,278.65,268.24,268.24,258.02,248.0,228.56,238.18,238.18,228.56,248.0,278.65,268.24,258.02,268.24,278.65,289.27,289.27,268.24,289.27,311.09,322.3,300.08,300.08,311.09,300.08,311.09,311.09,322.3,333.71,322.3,311.09,311.09,345.32,345.32,333.71,311.09,345.32,345.32,322.3,300.08,278.65,278.65,300.08,311.09,311.09,322.3,333.71,369.12,393.73,393.73,393.73,369.12,369.12,369.12,381.33,357.12,357.12,369.12,381.33,381.33,406.32,406.32,406.32,393.73,369.12,345.32,333.71,333.71,357.12,381.33,393.73,345.32,333.71,345.32,345.32,333.71,333.71,345.32,345.32,357.12,369.12,357.12,345.32,357.12,357.12,357.12,369.12,381.33,381.33,393.73,406.32,393.73,406.32,432.12,458.7,432.12,432.12,445.31,432.12,419.12,406.32,419.12,419.12,419.12,445.31,432.12,432.12,432.12,432.12,419.12,406.32,393.73,381.33,381.33,381.33,381.33,381.33,381.33,369.12,369.12,369.12,369.12,369.12,393.73,419.12,458.7,500.07,472.29,458.7,419.12,432.12,432.12,458.7,406.32,369.12,322.3,289.27,278.65,278.65,268.24,289.27,278.65,268.24,268.24,268.24,268.24,248.0,248.0,248.0,238.18,228.56,209.91,209.91,209.91,200.88,200.88,200.88,209.91,209.91,219.13,209.91,209.91,219.13,228.56,238.18,248.0,268.24,289.27,311.09,333.71,369.12,406.32,419.12,406.32,445.31,419.12,432.12,419.12,357.12,345.32,333.71,278.65,238.18,228.56,258.02,209.91,183.42,166.76,166.76,158.72,143.25,135.81,128.56,128.56,128.56,128.56,135.81,143.25,150.88,158.72,150.88,143.25,150.88,158.72,166.76,174.99,174.99,192.05,200.88,209.91,228.56,228.56,228.56,238.18,238.18,248.0,258.02,278.65,300.08,311.09,333.71,357.12,393.73,432.12,432.12,432.12,419.12,445.31,445.31,445.31,432.12,432.12,445.31,445.31,381.33,311.09,278.65,268.24,248.0,238.18,219.13,219.13,219.13,209.91,192.05,192.05,166.76,183.42,192.05,248.0,289.27,333.71,381.33,393.73,300.08,183.42,166.76,183.42,238.18,238.18,369.12,357.12,458.7,558.0,219.13,67.06,8.04,6.35,4.86,NaN,NaN,NaN,8.04,NaN,NaN,NaN,NaN,NaN,NaN,NaN,NaN,NaN,NaN,NaN,NaN,NaN,NaN,NaN,NaN,NaN,NaN,NaN,NaN,NaN,NaN,NaN,NaN,NaN,NaN,NaN,NaN,NaN,NaN,NaN,NaN,NaN,NaN,NaN,NaN,NaN,NaN,NaN,NaN,NaN,NaN,NaN,NaN,NaN
NaN,NaN,NaN,NaN,NaN,NaN,NaN,NaN,NaN,NaN,NaN,NaN,NaN,NaN,NaN,NaN,NaN,NaN,NaN,NaN,NaN,NaN,NaN,NaN,NaN,NaN,NaN,NaN,25.4,32.14,62.0,57.14,52.48,39.68,57.14,77.77,77.77,83.43,95.33,52.48,25.4,32.14,39.68,67.06,72.32,62.0,67.06,67.06,72.32,77.77,83.43,95.33,108.03,135.81,143.25,158.72,150.88,128.56,121.52,121.52,166.76,200.88,183.42,183.42,150.88,166.76,174.99,209.91,248.0,209.91,209.91,209.91,192.05,174.99,192.05,200.88,238.18,248.0,228.56,228.56,238.18,258.02,289.27,289.27,300.08,278.65,268.24,278.65,278.65,278.65,289.27,278.65,278.65,258.02,258.02,268.24,258.02,248.0,238.18,238.18,248.0,248.0,248.0,258.02,258.02,278.65,311.09,322.3,322.3,300.08,289.27,278.65,278.65,278.65,289.27,300.08,311.09,322.3,322.3,289.27,311.09,333.71,322.3,311.09,357.12,357.12,345.32,333.71,289.27,278.65,289.27,300.08,311.09,322.3,333.71,345.32,381.33,419.12,419.12,406.32,369.12,381.33,393.73,419.12,419.12,406.32,393.73,406.32,419.12,419.12,419.12,381.33,357.12,333.71,345.32,333.71,345.32,357.12,357.12,333.71,345.32,345.32,357.12,357.12,345.32,345.32,345.32,333.71,345.32,345.32,369.12,369.12,369.12,369.12,381.33,393.73,393.73,406.32,419.12,406.32,406.32,432.12,458.7,458.7,458.7,458.7,445.31,445.31,445.31,432.12,432.12,432.12,445.31,458.7,458.7,458.7,445.31,445.31,445.31,419.12,393.73,393.73,406.32,419.12,406.32,406.32,381.33,381.33,381.33,369.12,369.12,381.33,393.73,432.12,458.7,500.07,472.29,458.7,472.29,472.29,432.12,369.12,357.12,333.71,300.08,289.27,278.65,278.65,278.65,268.24,268.24,258.02,248.0,248.0,238.18,238.18,228.56,228.56,219.13,219.13,209.91,209.91,200.88,200.88,200.88,192.05,192.05,219.13,209.91,200.88,209.91,219.13,228.56,238.18,258.02,278.65,300.08,333.71,357.12,381.33,406.32,445.31,445.31,445.31,458.7,432.12,357.12,333.71,289.27,289.27,278.65,278.65,289.27,268.24,200.88,192.05,183.42,166.76,158.72,143.25,135.81,135.81,135.81,135.81,135.81,150.88,150.88,158.72,150.88,150.88,150.88,158.72,166.76,183.42,183.42,192.05,200.88,219.13,228.56,238.18,248.0,248.0,248.0,258.02,248.0,258.02,278.65,311.09,357.12,381.33,406.32,419.12,406.32,406.32,406.32,406.32,419.12,406.32,419.12,486.08,432.12,381.33,369.12,300.08,268.24,248.0,238.18,228.56,209.91,209.91,200.88,192.05,192.05,209.91,174.99,209.91,248.0,228.56,238.18,289.27,322.3,393.73,357.12,248.0,228.56,200.88,322.3,238.18,528.64,406.32,650.85,803.52,650.85,166.76,62.0,77.77,1.59,NaN,NaN,NaN,NaN,NaN,NaN,NaN,NaN,NaN,NaN,NaN,NaN,NaN,NaN,NaN,NaN,NaN,NaN,NaN,NaN,NaN,NaN,NaN,NaN,NaN,NaN,NaN,NaN,NaN,NaN,NaN,NaN,NaN,NaN,NaN,NaN,NaN,NaN,NaN,NaN,NaN,NaN,NaN,NaN,NaN,NaN,NaN,NaN,NaN
